ncols         336
nrows         32
xllcorner     1858033.06042
yllcorner     2354373.88454
cellsize      150
NODATA_value  -9999
454.1143 449.5927 450.2517 466.0256 492.3534 453.645 439.5836 440.9906 437.2447 434.5894 436.785 429.4502 423.9755 408.9142 400.1769 391.3789 384.6704 389.9544 379.4899 385.2251 423.8812 441.2208 435.3015 442.7531 431.2318 430.335 430.2279 433.9878 432.0319 428.0093 430.2344 446.4173 459.2633 462.5461 457.0412 449.272 450.4876 460.9282 466.1585 480.4039 466.1157 459.3036 454.3434 452.2619 452.2619 452.2619 452.2619 452.2619 453.4839 452.2619 452.2619 452.2619 456.077 459.7013 461.4351 461.835 463.8505 464.7947 465.3476 476.0111 473.2014 469.4256 473.6267 468.379 470.437 468.8124 474.5158 484.5318 491.5329 499.8917 509.0427 510.8616 500.0794 474.4468 458.0327 448.5475 415.2263 399.4492 379.3372 368.5391 377.8128 376.6205 378.3035 388.7612 401.4522 413.2723 424.4246 427.612 416.6355 386.7798 354.0347 336.0609 326.8487 324.2929 314.6684 307.5104 303.5315 316.521 346.545 351.2027 339.3923 326.1707 326.1707 345.8229 348.7525 359.7291 374.9284 393.8063 413.7234 434.2353 411.3961 403.0066 393.9636 427.7703 429.0569 422.3121 421.6146 399.8862 371.1067 371.7463 365.7581 361.8101 362.6256 350.4586 343.2147 330.6676 318.3584 318.2797 326.4683 328.8636 331.6656 333.1559 360.6222 387.8683 382.1712 343.4533 316.6389 283.662 261.9307 255.9251 269.1183 278.3969 275.2986 274.2929 276.3344 273.756 277.1826 287.9591 291.2147 280.6406 266.7902 258.7138 245.3441 239.0156 230.4799 229.2039 211.0814 197.6788 192.5736 214.4827 259.3355 260.8162 229.1675 221.2012 225.0863 241.797 264.5575 259.7929 265.3045 271.6716 178.3441 132.1064 121.9559 133.1232 135.8084 77.54416 53.78309 62.35941 65.2761 64.68085 76.55744 75.48374 71.13731 68.82959 67.14585 66.19242 63.55976 60.62703 74.86893 82.18005 87.90364 98.14076 105.513 117.6557 120.5711 106.5767 118.9575 119.2909 103.1926 83.12611 81.03638 83.97546 98.16676 72.98919 69.5069 66.69622 65.7587 65.7587 65.81987 65.94592 66.16272 65.33515 62.10324 61.94842 61.85789 45.49319 58.50203 67.63457 63.25427 66.37832 69.91982 69.46941 69.46941 69.46941 69.46941 69.65858 69.26219 69.87053 68.34756 67.71336 67.09299 64.24473 70.48512 69.42737 79.49891 75.16553 72.72716 71.83976 74.76853 76.00518 79.9221 77.82931 81.92197 90.15832 106.1166 124.287 162.8607 114.5496 104.7671 77.72282 61.57219 62.37841 72.32513 71.45605 82.12328 82.78011 75.88059 72.37702 68.9166 71.05724 66.22523 68.24641 73.84807 72.68713 68.06917 73.41789 72.27921 73.24062 74.41257 72.52223 71.11577 68.38886 61.35718 49.77022 46.2387 45.19766 48.77879 40.93439 42.12071 42.16667 24.66514 22.22849 21.80455 14.64946 14.64946 17.39592 18.04003 18.07 18.4108 18.27628 18.27628 19.05554 19.51554 20.11969 20.87668 21.59554 21.1305 23.6036 25.44205 26.77544 27.75978 29.59199 32.64328 33.55576 33.37371 36.59608 41.67947 53.4081 58.34667 59.92548 60.39893 60.71074 60.79454 61.01909 61.32758 61.84011 62.38282 63.69335 61.74412 59.54283 59.04371 60.06147 54.60409 49.84385 49.04208 48.23298 58.33812 67.04418 68.82168 66.33206 57.84182 57.84182 63.08259 63.75471 61.14005 59.74547
455.806 448.9974 448.9974 459.2008 494.91 454.0847 439.7114 439.5836 439.9968 435.7446 428.9578 432.447 420.9943 413.7552 401.4978 387.6235 384.028 387.6314 383.8602 379.4899 397.8444 421.653 425.1732 436.9532 442.7542 431.7125 430.84 440.7213 447.877 428.7358 427.749 428.5728 443.3042 451.9024 457.4516 448.1767 448.1767 452.8698 454.8947 472.8098 477.4706 458.5752 454.6014 452.2619 452.2619 452.2619 452.2619 452.2619 452.2619 452.2619 452.2619 452.2619 452.2619 456.4333 465.5082 462.8362 464.3806 468.3631 474.0225 473.5165 480.0063 472.2069 467.2591 468.553 462.7788 461.7569 467.5171 482.6486 491.7675 498.1233 496.574 493.8582 492.0886 469.9322 469.4253 456.1366 426.218 397.1014 386.478 375.3029 365.9136 379.163 370.9132 379.2569 387.1365 395.7462 413.6622 419.8391 417.4986 401.4928 376.7552 348.658 333.3071 329.5229 326.5818 316.1759 308.2905 303.5315 318.925 341.7231 336.8416 333.951 326.1707 349.8282 359.9513 369.697 389.4478 411.9545 433.3542 438.8338 413.5588 412.2082 387.1691 417.3535 426.1294 412.8759 418.5462 389.5867 381.1423 370.4338 372.8996 365.4576 378.4601 365.3923 347.5094 338.7339 329.7548 321.4119 337.9076 346.1551 349.4391 348.075 358.9362 390.2904 394.3657 345.8045 354.7351 309.5798 281.657 276.0713 283.3204 291.6811 292.563 283.0573 275.9456 278.9227 285.3737 301.1508 306.7898 299.2652 279.0643 267.3421 256.494 250.5483 230.7267 211.0814 211.767 192.5736 192.5736 213.1777 248.7933 280.903 251.923 245.6014 245.859 242.5279 270.6414 281.7181 261.7686 260.869 192.3231 131.8537 125.2708 142.0648 138.8798 78.80869 53.78309 53.78309 62.42363 64.9269 65.28696 68.67226 67.90013 66.96053 66.30749 62.45404 61.46082 59.56978 65.31466 78.25639 82.09416 96.18195 104.809 124.2056 134.4557 113.6785 107.2903 113.5662 105.9856 83.28106 81.03638 83.42411 94.06776 70.92985 67.51611 67.8044 67.49873 68.41744 66.04076 64.93727 65.0599 65.16476 62.46499 61.96672 61.37088 56.12423 45.49319 50.9322 57.46701 50.06506 44.40937 70.05116 69.90415 69.84727 69.9165 70.00609 69.89413 69.10516 68.08185 67.12167 67.14674 62.72837 74.60012 76.19614 79.5172 79.60905 78.93391 76.52202 75.50558 75.57896 88.04938 79.8578 80.86536 86.72308 100.2312 118.7116 148.1486 110.3234 104.7363 78.8959 53.04769 67.39099 75.08176 69.1675 83.04256 88.91247 76.28522 69.54338 68.9166 69.47975 67.05756 65.05193 68.93168 70.21552 67.34933 72.75005 67.99478 65.92479 72.49316 74.91533 74.44647 71.86892 65.6204 54.24381 47.6297 46.62331 48.36603 41.96453 41.87408 42.09594 24.45467 22.33279 22.09708 17.87518 14.64946 14.64946 21.46032 18.91271 21.26433 19.31303 18.27628 18.99936 19.58488 19.67826 20.26299 20.89771 21.01152 21.08986 22.86233 25.22494 26.00789 26.90792 30.34189 30.2396 32.8562 38.82512 44.99228 58.50243 58.79256 59.44326 59.86976 60.75254 60.46786 60.74033 61.12412 61.3423 61.54379 62.16026 62.724 61.21233 60.96913 59.1159 54.76383 48.45314 48.23298 48.23298 59.12588 61.6594 75.45267 57.84182 57.84182 57.84182 64.60026 67.00956 62.37543 60.79492
472.6771 461.8823 448.9974 451.9965 481.6437 470.0819 459.845 444.8394 431.3135 433.9488 429.5155 419.3383 423.2341 414.8618 406.3982 391.6507 384.4495 377.7444 382.9863 375.4256 396.815 415.4854 415.8635 426.1057 452.0784 451.0998 446.0082 451.4913 449.8973 434.6828 427.335 427.9316 428.2386 428.7694 435.7503 451.8459 453.4296 451.2322 453.0501 467.6738 475.0009 470.3357 463.4295 452.2619 452.2619 452.2619 452.2619 452.2619 452.2619 452.2619 452.2619 452.2619 456.2264 452.2619 457.4415 467.494 466.6926 468.2417 475.5999 477.8481 480.0229 475.6337 470.9036 464.4259 467.7891 464.4368 459.727 464.9041 467.6307 468.8641 464.5236 464.9846 470.6278 473.2212 468.1893 464.2771 430.5134 409.6978 382.8842 371.9149 367.7841 365.9136 365.9136 365.9136 367.4898 383.0525 392.2989 400.1893 409.2962 405.3262 389.7443 371.4301 343.5571 339.6175 341.9442 334.7886 324.8001 318.3044 303.5315 320.707 323.4761 333.5453 314.4443 345.8658 363.8978 383.0676 395.1537 414.3381 426.6282 428.5606 410.9036 409.6155 385.0338 392.6546 407.6648 398.8908 400.0797 375.6145 377.3283 372.9797 383.7423 393.4377 383.5767 393.4782 374.9104 340.7018 332.2628 335.1131 345.2621 354.5939 366.2815 371.5724 391.2794 397.4148 398.5888 371.1369 358.7573 325.8908 309.6387 296.5876 303.9731 308.3096 300.5011 291.9744 281.7719 279.4806 293.9793 319.0978 325.2923 313.2599 285.7661 277.0547 264.9039 252.1691 216.9814 213.9327 213.165 198.9675 215.0374 208.0586 243.1367 275.9535 272.5526 267.0276 275.5177 273.7272 280.2674 303.4475 267.8347 236.1718 207.0974 133.3953 131.3131 122.9568 95.89174 71.18098 58.37348 53.78309 53.87613 58.87003 59.21448 59.41236 59.14301 58.9516 53.86348 53.61389 53.76146 53.77116 57.65875 72.29601 70.06969 90.20332 95.24273 108.47 123.3673 120.5317 96.39822 100.9032 94.68427 83.32368 81.1527 82.86392 85.84371 69.92468 65.05043 64.42008 67.15116 66.69719 65.78456 63.70609 63.1581 63.96707 62.53694 61.45606 61.50734 60.8074 53.7537 42.72628 44.96882 40.62516 40.62516 41.18967 53.79744 58.07719 69.36215 69.88787 72.08092 71.68704 69.30975 65.10813 62.72837 68.48984 70.00729 79.31754 80.81429 80.38319 79.09537 77.30428 77.1506 81.71915 93.31733 91.18355 79.8578 85.56577 119.283 117.3675 125.8112 101.2086 96.007 84.92878 51.69032 74.35549 75.45642 68.63963 80.77399 85.7924 73.82614 68.86919 68.74406 70.71786 70.25838 66.42908 62.93378 65.48907 61.92092 68.78817 66.48785 60.1014 62.68388 73.65079 74.84067 74.31493 70.46732 58.38898 48.49649 47.84455 48.31372 45.7193 41.51118 39.39244 24.36619 21.50053 17.29863 17.29863 14.71561 14.64946 15.72535 19.89406 20.28249 19.53591 18.72853 18.50682 27.70507 28.06239 19.67826 20.06539 20.35722 20.42448 20.72101 22.99621 27.03649 26.24854 26.72423 28.94235 35.77354 41.64604 57.85798 58.60089 58.61217 58.44221 59.64566 59.24736 60.36331 60.72165 60.78462 60.91436 60.94654 61.31816 60.97203 60.92488 60.40837 59.36263 54.33731 48.23298 48.23298 57.85382 60.22107 62.5911 74.97296 68.032 57.84182 57.84182 59.63374 61.57776 61.90277 61.28075
480.497 473.6946 455.4692 440.0278 466.8867 481.4535 468.0428 463.1087 443.6317 427.1499 419.4254 419.2831 418.8324 419.6493 408.6599 392.5581 382.2768 375.3141 376.0173 375.2729 387.3718 428.7803 427.3824 419.9413 436.0867 461.3755 454.0657 459.0068 441.5897 434.6425 428.6989 427.335 427.9968 428.3304 432.9841 446.644 460.0547 462.1657 468.8885 465.0962 464.3664 470.0718 467.384 455.7877 452.2619 452.2619 452.2619 452.2619 452.2619 452.2619 452.2619 452.2619 454.6354 458.2182 452.2619 456.0094 468.5271 473.4074 470.2847 476.7671 476.835 477.3802 474.0437 468.8814 461.6599 460.5318 458.6874 453.2411 451.0517 452.058 458.2501 459.6583 460.4656 461.0044 450.7314 452.3221 443.2032 414.8896 390.5023 371.0322 365.9136 365.9136 365.9136 365.9136 365.9136 367.6328 381.8982 390.5783 399.6513 400.6763 396.8912 378.1176 351.8854 343.0597 350.0804 346.3014 338.9949 334.6884 315.6155 303.5315 309.7071 329.9846 314.4443 337.2388 356.2585 393.2481 396.5052 399.7121 406.0421 404.3956 401.1356 403.4431 387.5984 376.9108 380.3963 382.5285 381.2099 374.4502 391.0669 381.4923 389.3385 406.8565 391.028 389.7323 380.3341 337.737 330.5256 333.2645 347.462 364.6083 379.9065 389.7612 399.623 395.3315 388.531 368.0232 342.3291 319.1814 308.9241 305.2829 315.0067 323.05 306.7185 295.2191 289.4952 279.8746 286.7769 317.2149 318.5844 304.0421 284.2893 274.3518 265.5011 264.2373 220.8973 232.223 244.5589 226.8402 220.9829 215.0494 235.3023 256.7901 273.3618 271.8423 292.2263 291.1333 302.7099 305.6441 273.4433 230.4904 193.2009 135.8395 119.6898 104.0675 91.20853 71.10301 60.63523 55.44324 53.78309 55.62792 57.07836 57.73645 57.85738 57.41771 55.86055 54.11282 52.43884 52.97012 52.14433 61.64255 70.92348 81.4572 89.38958 94.32358 105.7541 105.0683 90.35697 89.34171 84.14292 82.25347 80.51076 80.60215 78.56685 66.04598 64.42008 64.42008 67.34704 65.83971 64.92489 62.07443 61.78624 62.91797 62.07381 61.80848 61.45669 61.81376 51.53426 45.20751 42.62022 40.62516 40.62516 40.62516 40.62516 40.62516 62.20466 67.42825 72.1552 71.15009 65.8299 52.24406 52.24406 76.60452 80.07759 80.48493 80.65259 79.62741 78.58838 77.36404 78.27615 83.81612 97.51669 91.5715 80.14182 82.73429 86.65072 123.1869 121.2638 104.9727 94.41938 85.68958 47.24976 72.33064 73.4009 65.22722 79.38147 83.97703 71.42483 68.35838 69.32065 73.11523 73.48507 70.64346 60.9939 62.93268 61.27286 65.04646 62.39871 56.05879 57.10258 67.70452 72.81065 73.48417 71.22831 68.42737 49.14589 48.1748 48.91702 47.32278 42.11771 40.16986 35.71099 26.25441 26.61563 33.93422 31.22634 14.64946 14.64946 14.66476 18.83854 19.06823 18.59364 18.1722 25.95777 27.40568 28.35132 21.14314 21.05836 20.54174 20.54585 20.87898 22.83448 25.74089 27.07904 28.49701 33.00412 39.20148 53.92229 58.12402 58.034 57.98351 58.54531 57.93369 58.93744 60.71 60.58565 60.74 60.72797 60.6123 60.41447 60.36881 60.52118 58.02909 48.23298 48.23298 48.23298 58.54451 59.86007 62.11865 69.1344 63.51678 57.84182 57.97781 57.84182 59.2067 60.49095 60.403
491.8156 484.3801 459.8466 438.9459 448.2716 486.9573 474.8835 463.8027 457.6107 440.5602 432.7717 418.3168 416.7719 426.2921 415.8563 397.5988 382.2456 374.1964 374.018 377.4451 374.2507 405.9326 421.7976 427.9921 429.0231 445.2781 446.207 431.997 421.5622 423.9796 425.5479 429.6958 428.6361 438.0217 439.9163 449.6234 456.8382 463.2024 465.7162 464.3664 464.4703 474.1421 477.8151 457.0999 456.9792 452.2619 452.2619 452.2619 452.2619 452.2619 452.2619 452.2619 452.2619 457.477 456.8804 452.2619 458.9807 473.1234 474.9546 473.2789 476.0006 476.2203 476.9506 473.8141 468.5727 461.4094 465.3006 461.5929 452.6317 450.9787 450.9787 453.7689 456.1877 451.937 450.9716 437.4349 443.6837 418.2164 382.8299 371.2803 368.5901 365.9136 365.9136 365.9136 365.9136 365.9136 371.21 379.4645 391.97 397.1627 400.031 389.8291 357.5803 348.946 359.1561 357.8916 351.967 341.2144 322.2055 303.1894 303.5077 312.5078 318.2925 338.265 353.8069 373.7198 386.3774 389.6514 401.3074 402.9292 393.3358 385.4448 385.806 367.8275 359.161 371.8033 362.2883 368.9308 386.7307 389.1711 393.7256 401.7342 398.7571 379.0567 380.3406 348.257 330.5256 330.5256 351.4644 368.0191 387.1311 402.226 403.7823 390.845 380.95 361.7606 348.3153 317.2663 327.1298 322.149 333.5017 323.1576 307.3176 300.6808 295.0017 283.6964 269.209 269.2924 275.5214 268.3972 258.786 258.786 255.9509 259.0028 224.076 231.2447 254.8817 259.0739 240.0205 232.082 241.7408 253.298 270.5346 282.8248 293.3233 307.4169 324.8932 313.0748 281.294 222.4569 170.2988 132.2054 124.1657 98.16899 88.0305 70.94165 68.96559 62.44403 54.08198 53.78181 55.32401 56.07129 56.41275 56.36124 53.91538 54.05096 53.2025 51.6178 50.83186 50.63867 58.10682 64.58733 69.76965 82.3057 87.25213 82.12035 77.20579 79.57954 78.29499 78.69285 79.03828 78.50285 74.49566 68.31975 65.55363 64.30733 66.54066 62.00422 60.7307 55.11401 54.86758 61.06474 62.90155 61.21529 61.36787 59.73583 46.44069 42.99907 42.01832 40.8548 40.62516 40.62516 40.62516 40.62516 40.62516 43.93838 64.74879 44.99857 63.06205 52.24406 60.33241 72.84014 78.53336 70.61642 79.70171 78.22536 77.50544 76.48653 78.16087 84.16344 95.26442 94.29608 82.73433 81.10417 86.28467 116.2697 104.381 103.8 100.9688 77.16967 45.27366 64.17157 67.93681 63.8291 81.88965 76.54489 70.27296 67.97791 70.27962 73.99181 77.91856 74.9796 62.45616 58.86939 57.60584 62.57684 58.97489 54.19979 54.66341 57.2874 62.96893 61.86723 67.24522 64.35401 55.40504 48.5292 48.78086 47.60401 45.98004 42.45041 32.23199 29.63609 32.33884 30.07296 20.28942 18.58661 14.64946 14.64946 14.64946 18.09365 18.21439 18.60147 17.88327 21.05392 22.5153 22.41331 21.77805 21.09389 20.8158 20.82882 20.88115 21.17216 24.02945 25.08164 28.17974 32.57983 35.62858 43.8814 47.81842 57.45317 59.10963 42.23019 57.3593 59.53066 60.45741 60.43119 60.53085 59.99652 59.49955 59.25049 59.07225 58.42879 48.23298 48.42397 58.30691 58.47124 58.47124 59.70405 58.34417 58.07082 60.22625 61.53402 59.2553 59.21006 59.82003 63.64205
495.6127 502.4777 470.0836 447.0876 435.31 446.3462 464.1256 453.2151 445.2738 441.6208 438.6874 432.7917 411.8755 410.2714 413.1267 404.0598 379.7552 373.9486 373.9486 373.9486 372.0051 386.9466 399.5719 435.5736 425.2218 425.3852 424.9958 413.2146 413.9832 440.8415 437.9898 440.6633 442.831 450.6013 450.4651 448.0462 456.1927 462.3409 462.0385 465.1377 463.133 473.6702 471.9615 465.3277 477.8637 474.1582 453.6657 452.2619 452.2619 452.2619 452.2619 453.016 452.2619 452.2619 456.7416 454.6562 452.2619 462.5362 473.3037 475.9049 474.8257 476.3923 476.0411 474.7625 473.6093 467.5405 462.3833 465.1603 458.2524 452.187 451.7248 450.9787 446.0063 436.4422 451.6512 449.9651 436.6059 438.572 401.0157 379.5104 370.1136 373.4648 375.2198 366.7715 365.9136 365.9136 365.9136 370.5325 384.2731 389.5497 399.3887 399.8848 370.1849 352.3269 364.6281 365.8836 361.868 351.1918 338.3195 311.6541 301.4521 305.7646 311.8685 333.7046 353.2945 366.8124 367.9545 372.4772 387.7383 395.1104 395.0605 377.4682 382.1872 378.1282 368.6296 352.8336 352.2542 355.2932 369.1534 384.7371 382.4539 382.8827 383.4562 381.1421 374.1992 353.596 330.5312 330.5256 347.9673 364.2095 381.032 400.712 408.2536 400.2618 384.7701 361.0427 343.8738 321.903 340.1031 332.6588 338.1397 322.1286 304.8887 296.5918 293.7527 276.9848 258.8275 258.786 258.786 258.786 258.786 274.9202 274.4471 255.6849 240.3035 255.3275 265.9158 267.5524 254.6576 236.1257 249.933 261.193 275.7387 282.7209 292.309 300.9616 324.1183 324.3985 263.299 218.0258 160.4999 119.346 112.8308 95.46027 88.59679 84.62598 79.33905 70.30605 55.34188 51.31368 54.86931 55.40759 55.4434 55.64488 54.93799 53.91538 53.28447 52.38251 50.82447 50.1158 49.35382 57.06331 61.29153 64.92643 69.48679 70.4655 66.81643 73.62455 71.12831 70.99023 71.04248 76.29063 73.50802 67.75654 64.779 65.62614 54.54052 52.27144 51.74823 50.84312 50.90951 52.83293 61.69598 62.35982 61.04475 57.57618 45.48124 42.18753 41.60384 40.94909 40.62516 40.62516 40.62516 40.62516 40.62516 40.62516 40.62516 43.7116 64.83789 52.24406 59.48658 66.49949 74.80217 70.10683 75.61925 75.86305 75.76794 75.47978 77.49004 82.92891 91.31962 95.95197 81.69505 81.69006 81.81849 96.11256 102.8028 103.7118 102.3187 74.97376 44.01408 52.19223 57.69998 54.21709 79.89519 74.07374 68.29384 67.97791 73.92791 83.14616 80.08627 76.95435 65.12533 63.66512 57.54156 60.55049 54.86801 53.71394 55.36718 66.60857 66.79383 62.15351 61.86723 63.71424 61.44809 53.02407 47.69904 46.2699 45.60809 33.61783 43.04705 38.50599 39.30127 23.48997 20.31978 19.47587 18.34279 14.64946 14.64946 14.64946 18.08845 18.30561 18.08337 17.01698 19.26917 21.78433 21.84879 21.39702 21.11151 20.94872 21.02565 21.1207 22.27217 24.02846 27.37234 31.09085 33.12904 36.98543 39.47463 46.64498 57.074 41.92048 52.19158 58.70332 59.76609 59.84638 59.4796 58.94768 58.36061 58.2248 58.20868 57.24757 48.23298 48.23298 58.97132 60.3175 61.92517 57.20173 56.10493 56.10493 61.66545 61.55909 60.22518 60.61925 61.43204 63.20467
489.1765 501.2379 478.0342 455.7338 439.6825 434.192 433.903 443.1081 444.5718 433.8536 433.5389 431.8314 418.3342 407.5515 404.4688 405.5927 384.6023 374.4687 374.2326 376.1977 372.0051 379.3111 387.2314 402.598 427.0329 417.9373 416.8131 405.2649 439.1278 449.4773 456.212 441.7838 442.1983 440.906 452.6539 456.2912 439.68 443.4057 448.7316 457.9566 468.432 456.407 460.2808 455.3097 468.7996 467.5213 476.0707 468.1574 467.9662 460.7361 455.4126 452.2619 452.2619 452.2619 452.8526 455.199 452.428 452.2708 463.5052 469.7137 478.4408 477.1631 476.8349 476.0283 476.0794 472.7679 465.9611 468.3124 475.3498 453.0905 456.7198 461.1825 465.9179 456.6499 435.0481 435.0481 423.976 435.1064 424.1018 397.1748 373.8341 374.2849 381.9631 382.8785 365.9136 365.9136 365.9136 367.9624 380.9921 385.9696 389.8184 401.4133 399.5031 371.4334 362.3835 370.7577 368.0452 359.3435 344.9753 330.2442 312.3324 299.8912 298.222 308.5486 325.3681 346.0342 351.0936 365.0883 383.5981 385.7795 377.2285 376.8637 378.7762 379.2954 372.4376 352.7223 350.9287 358.7553 373.0151 374.3738 375.2677 383.0195 395.6751 371.9732 369.5662 350.1637 331.2009 324.1818 330.5454 357.6194 379.0956 387.5358 396.8348 397.0673 384.1501 368.2717 348.7708 345.8927 343.156 337.1557 358.3534 358.5796 309.3018 278.8913 265.7192 259.0542 258.7935 258.786 258.786 258.786 264.8947 287.6094 313.1172 290.51 263.8015 267.409 276.7007 262.3147 253.7648 245.735 250.7844 256.4633 284.414 295.4625 290.5436 296.3925 319.2339 300.7649 272.5548 208.657 139.8919 111.0624 107.9093 92.64885 88.19018 84.7141 81.54507 75.96942 65.76216 51.31368 52.84966 54.31467 54.46719 54.71253 54.88263 53.97412 53.37678 53.04373 50.95958 49.63167 48.78807 48.03406 47.73041 52.53952 53.3801 53.79943 53.99905 59.76474 62.80386 63.81569 66.80425 66.72515 65.57135 64.58926 63.98943 61.74814 52.36908 48.96958 48.83269 47.64568 47.60025 62.16439 60.9002 61.56561 60.63272 57.54818 44.64799 41.90101 41.49324 40.62516 40.62516 40.62516 40.62516 40.62516 40.62516 40.62516 40.62516 40.62516 61.77414 42.80066 52.68325 64.08612 64.08612 67.93034 68.97805 68.54198 70.17573 70.91471 76.10663 80.38252 85.07433 93.09487 80.84804 82.39852 83.42569 92.80813 102.2649 104.4627 98.23804 75.18235 55.86856 44.01408 44.01408 58.624 80.59319 70.80466 67.9448 62.12491 80.30318 90.23953 84.74075 82.84756 71.38288 67.03094 60.4859 56.86849 56.85373 53.10559 56.76374 72.5855 66.0176 57.67768 60.17785 61.59184 61.30212 54.72514 45.60809 45.60809 46.70814 46.16525 45.69769 45.39519 23.86068 20.13465 20.02305 19.75668 18.98066 18.43489 14.71831 14.64946 14.64946 14.64946 15.43572 15.87888 16.93679 18.06193 20.80066 21.24354 21.50098 21.26874 20.9851 21.04274 20.69372 20.58209 22.48237 30.74315 30.52487 33.6101 36.23411 38.68166 42.52311 41.08991 58.13166 58.43578 59.05613 58.9787 58.59384 57.89542 55.9503 55.53356 54.65597 48.57838 48.23298 54.92651 56.10493 57.80286 56.10493 56.10493 56.10493 56.10493 61.64752 60.20156 59.68222 62.77537 62.82376 63.63646
474.9266 463.9927 463.3664 468.46 449.0611 439.173 434.3561 433.5162 441.3684 445.8476 441.262 437.4563 421.3089 418.958 420.7108 405.4779 388.0841 382.5904 392.5445 379.2567 374.4556 372.0051 372.0051 381.3017 388.6724 394.2732 394.1772 429.3174 452.7743 443.24 435.6641 441.9454 434.061 432.3683 428.7778 440.4247 435.3414 431.0511 440.347 450.0623 457.0732 451.9021 447.3399 452.2221 448.9892 452.5575 466.3975 469.1009 471.3615 466.9965 470.0634 460.0591 452.2619 452.2619 452.2619 452.2619 453.2681 452.2619 452.4431 456.2776 470.7424 480.0291 476.5507 476.835 473.7364 477.2738 475.4092 471.1829 474.3725 458.1582 456.6151 463.8768 467.8803 465.6342 456.6301 438.9366 426.7368 407.0862 396.0427 382.7034 379.439 378.8282 371.6382 370.7033 371.856 367.1797 365.9136 369.0883 373.9321 381.9336 382.9657 389.0002 397.6762 396.2461 363.1985 368.8542 370.6214 363.2869 345.9795 329.8867 313.2429 300.9697 293.6141 300.2294 321.1171 324.7428 338.2563 354.0636 376.9203 378.396 370.1406 378.1437 377.7759 378.5474 374.4741 359.2027 350.9287 353.9727 372.6617 381.1194 383.3174 391.7024 401.8041 374.2095 374.9123 358.8705 324.1573 322.1885 322.5392 343.0502 381.3517 403.9489 393.4529 386.6501 384.7606 357.0939 353.0463 352.586 338.3556 336.0976 355.6644 343.1741 317.2943 294.3259 281.8864 265.7914 259.1744 258.786 258.786 258.786 274.0609 291.5495 319.6373 319.1587 283.2652 269.7876 276.4349 262.6618 257.4062 268.0294 266.4366 257.5214 268.447 287.94 290.0783 279.5916 314.4626 286.0892 259.1716 215.227 164.2045 103.9211 96.74777 89.16551 88.24058 89.62276 87.49726 84.66493 77.43669 62.953 51.31368 51.31368 52.30313 53.02656 53.77366 54.03645 54.02982 53.38643 51.22389 49.54995 48.49446 48.24166 48.09949 47.64208 52.23727 52.90392 51.92332 53.01049 58.28254 61.11579 62.21293 62.36924 61.92506 61.0443 60.41217 61.07283 54.62404 47.73142 45.8776 45.38281 45.0988 46.62186 54.49089 56.17733 54.09707 54.34372 44.84061 42.4794 41.77256 40.80075 40.62516 40.62516 40.62516 40.62516 40.62516 40.62516 40.62516 40.62516 44.27367 41.38723 46.30419 65.37831 66.8621 66.19031 67.12981 67.74572 68.43269 68.81656 73.03569 75.6795 79.91512 90.22931 78.16847 80.78482 82.967 91.8224 102.2234 105.4898 94.44669 73.50801 64.87522 65.08353 44.01408 56.5422 79.28191 64.64826 68.16792 61.82924 82.18601 86.2654 85.95854 87.89053 84.87788 79.38286 70.22086 53.7375 55.08465 52.33121 68.05996 76.35216 66.38002 57.21064 50.98968 50.64789 48.37283 45.60809 51.64722 54.84296 51.40011 48.02235 47.20916 47.70087 22.52595 19.89334 19.55184 19.48561 19.03239 18.74747 18.24586 14.64946 14.64946 14.64946 14.64946 14.64946 14.64946 15.75563 18.0931 19.64882 20.90816 21.62418 21.58942 20.35215 18.91056 19.34099 20.05609 20.59975 22.8689 31.33963 31.30197 35.9141 35.50012 49.52169 57.79198 58.5124 58.35845 58.35544 57.96422 52.50206 49.44036 47.77117 48.23298 48.23298 53.33718 56.63021 57.27305 56.10493 59.25704 57.73893 56.3036 56.10493 59.56328 59.68222 60.29786 62.87706 62.9872 63.31253
464.8207 465.2489 458.5571 458.5571 459.7014 448.0311 437.3885 433.0124 434.6968 445.3228 457.8547 452.0868 445.6065 445.2657 452.0852 448.3499 418.9228 390.131 383.3288 379.3709 374.6948 372.1418 372.0051 383.9336 388.9836 388.6378 400.4391 436.0052 441.0696 446.2239 438.9778 431.7001 436.858 434.1277 438.2855 424.553 428.2729 430.0889 438.4372 431.6995 439.1126 444.1344 446.9589 448.9892 448.9892 448.9892 448.9892 448.9892 448.9892 473.3679 472.2528 457.4426 452.2619 452.2619 452.2619 452.2619 452.2619 452.2619 452.2619 452.2619 458.6734 471.9141 480.1819 475.6874 477.428 472.9254 474.9192 475.9535 471.1951 468.0753 458.7565 462.2182 465.6973 466.3138 462.435 458.5534 455.3641 441.9715 427.9429 405.2804 397.9824 389.5638 379.0226 370.7033 387.466 387.0065 375.7874 364.5229 371.8558 375.2995 377.4542 377.4203 384.2231 389.0884 378.9878 358.9233 366.6087 350.2202 333.0638 309.5699 309.5699 303.0653 293.8113 292.7559 300.5675 322.883 338.4596 346.2583 346.7338 358.6555 356.426 378.2343 381.8654 378.847 373.8047 360.9372 350.5662 362.3542 371.5845 383.2395 388.9751 394.2089 397.5194 390.9641 381.3212 358.197 326.4565 322.1885 322.1885 326.6285 350.4125 377.5474 382.6554 379.6221 368.7459 375.3018 372.1167 356.3964 339.0995 335.7428 335.7852 341.272 323.652 323.1463 310.5346 281.202 279.6875 283.6232 271.2455 267.8605 277.9954 288.7034 308.1169 315.9671 308.1481 282.7493 271.9585 269.2961 264.1107 283.229 289.811 273.0101 251.55 274.3332 266.9973 261.8269 270.2074 289.2802 267.4511 247.2265 159.0609 100.8733 92.4363 90.10703 88.24058 96.15593 95.20768 88.2514 84.91899 78.08318 60.69827 55.01448 49.87941 49.97984 50.73245 51.53653 51.21763 50.85987 50.00114 49.4605 48.90487 49.08097 48.69395 47.85141 47.64208 47.5401 47.5401 47.47723 49.26622 55.38722 54.90142 53.48845 59.17194 50.37272 47.956 49.02695 46.15018 44.41864 42.54421 42.49154 43.13755 43.06886 42.4586 42.4586 45.23785 44.79303 43.53575 42.28939 42.12859 41.96317 40.62516 40.62516 40.62516 40.62516 40.62516 40.62516 40.62516 40.62516 40.62516 48.30998 40.62516 63.32071 62.98356 62.9632 64.25037 67.27957 68.32214 68.77568 67.14768 70.54098 78.77518 86.32378 76.47518 76.23171 80.72097 91.09496 103.6936 102.6393 95.44691 73.19882 63.48462 62.13235 44.01408 69.34737 75.19432 60.14185 67.86888 58.29265 81.07402 79.28408 85.96815 85.40019 83.1036 82.05868 74.97144 56.82129 51.96186 51.96186 65.4024 72.36222 63.59001 58.68949 53.05363 61.88635 61.38818 61.76806 61.93173 60.90923 56.03568 49.41652 47.83798 46.80197 27.14377 19.44901 19.4477 19.37186 18.48825 18.14409 18.17391 18.26321 18.07 14.70769 14.64946 14.64946 14.64946 14.64946 14.64946 14.64946 14.64946 17.30654 16.48189 18.57334 18.72494 20.31005 19.40698 19.82719 20.36616 20.53577 20.70477 27.41478 32.82983 50.92442 58.8889 58.34126 56.14948 57.83947 56.01331 51.24143 46.73141 55.34212 58.63039 58.30918 55.49189 55.42335 57.848 58.28407 60.36184 61.81784 62.36074 56.93595 58.04773 60.30998 60.69412 61.71177 61.72808 61.81007
457.1757 457.1757 460.5172 466.8546 466.2809 457.0277 446.3858 433.3698 433.0124 438.0705 444.2006 438.1834 449.1111 451.858 449.8263 465.1683 473.6644 433.6982 412.3307 386.3307 387.5283 372.2101 369.5362 370.3032 377.9482 391.9681 399.5935 441.4164 445.1692 433.7671 431.2482 431.1349 433.5793 437.3024 437.4786 432.6917 417.175 417.175 427.0474 430.2103 434.2638 446.9022 451.8041 459.45 448.9892 448.9892 448.9892 448.9892 449.6785 481.1531 475.6344 452.2619 455.2558 466.3872 460.5962 452.3933 452.2619 452.2619 454.3044 452.2619 452.2619 459.1323 469.1696 472.7936 472.5395 471.8756 480.5274 481.0056 474.8404 467.615 462.1788 461.3039 463.8486 473.7585 475.6882 469.1862 460.1533 461.0104 447.8486 419.1073 414.9276 411.4894 390.0216 374.3763 395.9076 404.1029 390.3965 373.3559 364.5229 368.5116 372.1428 372.0979 370.3344 376.1978 376.8891 372.8314 347.1193 338.5845 309.5699 337.6771 346.5951 345.9036 313.5452 292.7559 292.7559 307.5385 329.3801 339.6163 343.3262 339.7097 345.2662 367.8231 378.2563 385.1266 380.1427 359.4084 338.8112 360.8642 367.4584 378.5628 387.8317 392.748 393.8672 392.3217 389.4459 374.7076 335.1689 329.7867 322.1885 333.2276 347.8873 356.0414 367.5625 372.8865 364.9308 365.7423 371.5887 357.7245 337.8047 329.2637 331.9191 328.942 330.4189 326.099 321.8957 290.1724 312.4192 320.1095 338.5663 310.6078 289.0363 289.5099 292.1781 297.507 306.1817 300.936 279.556 290.999 276.8618 282.0199 279.4333 283.4521 251.0077 252.1306 255.051 241.3419 238.9733 254.9085 246.9147 215.3848 150.1268 104.1657 91.94653 89.83183 89.66452 94.70237 94.02647 89.05589 83.63059 80.4322 78.36763 65.37023 53.0279 49.87941 48.3351 48.05102 48.50868 48.60906 48.6778 48.60234 48.4807 48.51468 48.29313 47.97194 47.7397 48.92376 47.80698 45.83816 46.34396 49.36551 50.71552 50.20652 47.19894 45.54414 43.35342 43.05732 42.68929 42.68929 43.11499 42.4586 42.4586 42.4586 42.8091 42.3955 42.26799 42.56781 40.62516 40.62516 40.62516 40.62516 40.62516 40.62516 40.62516 40.62516 40.62516 40.62516 40.62516 40.62516 40.62516 40.62516 40.62516 42.4135 48.33919 42.42231 58.76549 67.36738 67.81153 67.77221 67.79514 64.46091 68.32848 89.05398 76.86192 74.18884 77.83675 96.40575 102.3425 107.4023 91.52657 73.42406 44.249 44.249 44.01408 66.64239 68.97251 56.67171 55.55822 56.55369 78.40599 75.42239 79.4821 78.29323 75.95915 75.7171 71.25237 55.87421 51.96186 51.96186 59.33685 61.96689 63.40068 62.55417 63.83076 61.91949 62.4614 62.47418 62.04768 61.44789 53.95741 50.11481 49.06531 48.68031 40.0936 20.04612 19.85597 19.66991 18.51931 18.14409 18.32057 18.07096 18.07 18.08024 18.18462 19.10419 14.96291 14.64946 14.64946 14.64946 14.64946 14.64946 14.64946 14.96346 19.67143 20.98517 19.12513 21.02882 20.1677 19.74336 20.07483 21.00253 22.77513 43.70719 57.32804 57.37912 49.00238 49.46546 49.66904 44.22398 42.19405 57.16368 58.51812 58.54732 57.81437 57.90764 58.34967 59.1283 60.23629 61.16401 63.18412 61.77965 60.63986 60.5702 61.05753 61.09436 60.53054 60.78271
458.3971 457.1757 458.3085 467.1012 469.634 465.4674 453.4028 441.2299 431.7991 433.1693 431.7021 431.2569 437.5631 450.6509 453.9781 445.8467 464.577 480.4171 451.9947 423.7286 393.5104 378.3307 371.7638 368.302 374.123 382.7028 394.6365 411.131 432.9966 443.7895 431.5545 430.0137 442.3855 437.4027 435.6261 427.4048 417.175 418.0529 425.0487 431.8148 443.2649 452.3902 454.6353 462.8838 459.2133 454.9552 448.9892 448.9892 456.1975 494.0797 484.2694 452.2619 463.7778 473.0873 468.631 459.4761 454.3635 452.2619 454.7496 456.487 453.4214 454.4888 459.0664 459.2916 459.4677 475.1965 486.2156 477.7007 473.5207 473.4738 467.8174 464.1996 462.6366 475.9157 484.8248 481.4776 462.9529 455.2348 444.0284 433.0835 423.9123 420.752 408.8339 379.4243 390.8325 399.6281 383.3539 374.2252 358.1658 361.3612 353.7451 357.5006 365.8578 366.0935 368.9847 372.5735 358.844 320.3146 323.8939 341.3566 354.3543 344.0623 326.1209 296.6106 292.7559 292.7559 312.9359 326.3873 334.9058 331.0298 333.0544 353.2972 366.6643 374.3554 380.2843 373.8098 354.5762 337.5699 353.4013 372.3451 381.8884 390.5579 390.3496 386.5901 386.068 375.1938 348.9042 337.4651 327.9575 322.1885 343.3363 353.6921 356.272 360.0905 360.9825 355.552 355.552 354.7847 341.521 329.2637 329.7628 327.6881 329.8154 327.3141 311.271 322.8097 322.63 333.7224 340.0546 329.0413 304.3318 297.5519 292.8344 287.4077 294.4369 299.4455 281.6479 296.7133 286.6378 288.705 277.2735 281.2139 262.3975 249.067 251.8345 232.2854 223.9735 232.181 218.4319 195.1192 137.9852 102.5431 89.72311 89.60036 89.72033 94.61948 95.13313 93.72374 83.44672 83.94532 82.9784 83.89015 65.67002 55.29535 52.48576 47.88694 47.88694 47.88694 48.12949 48.18614 48.07339 48.13522 47.95021 47.75763 48.30236 49.63335 47.28609 45.75973 45.78749 46.93799 47.04754 46.94067 45.29206 43.93755 44.40208 43.86725 44.07158 46.22511 45.57652 43.97326 43.66235 43.68008 43.49034 42.26799 42.29261 40.62516 40.75647 40.62516 40.62516 40.62516 40.62516 40.62516 40.62516 40.62516 40.62516 40.62516 40.62516 40.62516 40.62516 40.62516 40.62516 40.62516 40.62516 40.62516 51.25443 66.59419 67.3683 67.2664 66.81339 63.23743 66.47974 83.54955 78.5807 73.9296 76.67985 89.75391 105.1562 106.0707 83.743 70.58418 50.94317 45.2007 44.01408 59.62575 62.30853 55.28888 47.73913 54.54812 75.38232 72.76562 77.55684 73.43078 67.96345 68.85172 66.12082 53.36803 51.96186 53.46 57.87252 57.87252 63.62912 63.98505 63.30279 62.83701 62.56298 62.14676 61.46638 59.52406 50.98511 50.25758 49.38753 48.77277 33.17788 27.26249 20.37312 20.1598 19.28834 19.74007 18.08856 18.0632 18.0632 18.10877 18.2085 18.95812 20.12063 20.71496 21.5138 18.12709 14.64946 14.64946 14.64946 14.64946 14.64946 14.64946 18.49498 20.2094 20.51522 19.41699 19.59064 20.24864 20.56274 25.44087 43.15905 56.26491 48.10862 45.38552 42.97734 39.68823 39.84605 58.73862 58.42565 58.53122 58.46281 58.45737 58.56361 59.30678 60.32018 60.74462 60.74006 60.52788 60.28875 60.66604 60.92709 60.19925 59.45781 60.72102
470.9627 467.8089 455.1154 455.9258 466.7285 465.282 465.6999 453.1335 434.1666 431.4241 431.032 430.4376 430.6758 435.5675 450.2007 437.9914 431.5981 438.3634 454.7868 445.899 426.7934 390.14 377.8098 368.302 368.302 368.5283 376.6876 386.7486 391.2653 428.0317 430.478 427.6272 436.0059 447.994 448.3752 422.5729 415.3146 430.4068 442.8538 439.7708 446.4816 463.0894 472.087 458.5661 457.452 467.8669 455.6028 448.9892 461.8137 496.7807 484.9666 452.2619 452.2619 458.7186 466.8075 462.3057 459.3412 456.5564 455.6048 456.7728 459.5826 455.8511 454.545 454.8382 466.5851 490.4091 496.4247 480.3099 473.4965 473.3471 479.657 470.7122 468.2304 466.9182 472.4615 470.9294 465.8375 455.1941 442.7124 438.5821 424.2737 416.9711 406.8847 390.0672 379.4757 380.0729 380.1612 375.0474 368.1335 355.2747 356.7928 353.7451 337.4676 356.2178 363.5096 354.1718 350.2505 320.3146 338.551 347.8374 347.8993 327.1128 318.7743 302.1212 301.5115 292.7559 302.3376 313.6662 322.6648 316.2641 331.8304 337.0638 348.6054 360.6037 362.2023 371.6377 365.3813 334.0011 344.4525 365.5727 373.9556 383.8453 386.1886 384.2677 379.1945 378.4545 357.2414 341.2728 336.0188 321.1526 333.7772 350.1169 351.8158 355.592 359.0768 367.685 361.2492 339.2877 332.2162 328.3994 327.9516 327.3141 327.3141 330.1705 329.745 330.9554 335.971 333.512 330.8353 327.4691 324.7917 317.4612 293.2855 289.9429 284.5749 286.7283 281.147 295.3239 300.9166 298.9345 275.7216 271.4674 260.0432 246.6287 257.5304 239.0654 202.9989 202.9135 193.6732 187.3489 129.1506 96.97355 89.45575 89.78644 89.10477 98.40385 98.78545 98.41111 86.03933 84.00266 84.89506 83.66542 83.76373 64.83075 63.24216 54.33289 49.51665 48.81721 47.88694 47.75763 47.75763 47.75763 47.75763 48.75307 50.29371 48.40909 46.76229 46.27731 45.70719 45.5074 45.49631 45.49631 44.79162 45.38798 45.47645 45.52765 46.32659 48.47644 46.23178 45.39153 45.19834 45.0057 44.01545 42.74384 42.66235 41.5373 41.31791 40.62516 40.62516 40.62516 40.62516 40.62516 40.62516 40.62516 40.62516 40.62516 40.62516 40.62516 40.62516 40.62516 40.62516 40.62516 40.62516 40.62516 42.03379 66.51262 67.15236 66.75645 66.39081 63.53704 62.11996 78.95835 78.81 80.44597 71.96636 90.34806 100.2463 101.485 83.47298 70.42644 58.905 66.38287 44.01408 51.24781 58.51374 57.03764 46.67391 51.20172 71.20661 71.04992 74.56001 72.83011 64.78342 66.68201 69.77977 53.97688 51.96186 55.11968 60.91773 61.17199 63.72507 63.81374 62.79153 62.30709 62.37595 61.96951 61.3715 58.2052 51.15038 50.07719 48.85782 47.01371 38.3728 47.4029 38.17054 19.75212 19.7936 20.25147 18.06358 18.0632 18.0632 18.0632 18.0632 18.0632 18.0632 18.48623 18.0632 18.0632 18.07007 18.06428 14.65918 14.64946 14.64946 14.64946 14.64946 18.68795 18.99758 19.08767 19.17663 19.39949 19.68663 20.72095 37.81846 52.12243 47.96843 41.71648 36.90038 41.00897 51.18816 55.87521 57.68352 58.2305 58.42593 57.89656 57.87449 58.95641 59.89948 60.6582 60.47795 60.10871 60.0658 60.2805 60.3237 59.45781 60.76691 60.75383
465.8836 460.1599 455.3829 452.016 456.1464 464.4331 470.9828 474.8466 452.8712 439.9004 435.115 431.1247 429.9716 429.1631 427.8801 427.2775 428.4705 428.6216 430.6183 431.3481 425.0031 407.3714 392.8142 374.4239 372.1768 366.6867 366.6867 369.8116 385.1527 403.0589 417.3937 423.6673 432.0587 435.8719 444.8976 425.2196 415.3146 420.7706 440.6032 440.8584 444.789 460.3106 483.5306 474.6104 451.5824 462.4626 467.4072 449.8438 451.5178 479.6056 480.4043 462.0739 456.1866 448.417 449.8435 458.849 457.054 460.7272 460.511 460.9255 461.044 461.8304 456.0618 457.9821 481.8839 507.8313 508.9491 496.728 479.0187 476.3265 476.9286 471.0175 467.1447 467.5988 456.9838 456.8951 454.4284 450.2116 444.2039 437.9032 429.089 420.9573 408.8405 394.983 373.6143 368.1335 368.1335 368.1335 371.4796 373.6021 369.5644 372.6218 358.1497 332.7053 327.5439 327.3301 322.8791 333.0432 360.5406 369.8705 378.2307 374.2059 348.2366 326.3627 316.1392 297.0649 292.7559 297.0797 298.3295 317.6193 330.9119 321.4429 310.5795 335.1638 336.6316 346.4012 348.3432 337.9167 334.0011 358.4077 361.2955 375.2168 379.4655 380.211 378.5095 373.0926 365.8138 348.162 336.7907 321.1051 337.514 338.6869 349.5749 357.5859 363.8457 371.6031 364.246 341.1008 339.9914 342.4101 334.2212 329.4493 329.8559 331.2458 329.4943 339.3242 353.6924 340.5549 324.4485 312.5655 310.9184 314.0771 297.682 287.4762 293.5065 280.641 294.4945 299.4955 303.8417 293.0312 278.5141 259.9778 241.081 243.424 269.9205 261.8297 208.5046 169.0192 169.1205 163.0934 133.4859 95.33234 89.45575 89.45575 87.65584 93.47881 97.55325 98.24965 90.2031 84.00266 84.25639 83.05182 81.91264 80.81008 79.81955 78.46556 52.61634 53.91511 70.01665 77.93443 53.21794 53.52884 55.26753 52.80339 52.51293 48.61143 46.51226 45.80227 45.49631 45.49631 45.49631 47.39512 47.4644 47.7453 48.09896 48.31705 48.78429 49.18601 47.68154 46.74536 46.66814 45.88106 45.3205 44.11443 43.45057 43.00195 42.601 41.15189 40.62516 40.62516 40.62516 40.62516 40.62516 40.62516 40.62516 40.62516 40.62516 40.62516 40.62516 40.62516 40.62516 40.62516 40.62516 40.62516 40.62516 48.36008 66.53764 66.60129 66.43424 64.70467 56.21675 75.11455 78.49191 73.39789 69.9831 75.91449 99.33043 103.8057 72.87697 70.78941 66.86547 44.01408 45.77237 44.44861 64.7298 52.24287 45.38141 55.02082 65.7241 72.60575 73.12052 67.70197 63.48038 64.98943 69.42159 53.66887 50.16449 56.89932 60.71786 61.70002 62.8383 62.87783 62.1242 55.99877 58.76168 61.62858 61.03629 55.28101 50.67515 49.92256 49.07829 48.02737 45.96991 41.82163 25.77716 22.06033 18.25844 18.25844 18.25844 18.0632 18.0632 18.0632 18.0632 18.0632 18.0632 18.0632 18.0632 18.07111 17.69593 18.04186 20.78271 21.37672 14.64946 14.64946 14.64946 14.64946 18.17598 18.61932 18.77769 18.41755 18.30773 18.19706 29.63278 42.27314 39.77493 36.90038 45.48233 51.74047 54.70192 53.57827 57.53526 57.7388 57.74311 57.49681 57.89364 58.81441 59.79046 60.75201 60.34409 59.80865 60.06887 60.62827 60.56188 59.45781 60.76961 60.48478
464.2636 462.9909 454.7655 450.425 452.9979 453.9093 457.294 477.1447 470.2542 448.1023 442.6584 441.0114 433.105 430.7989 431.7552 427.629 427.2775 414.6483 416.693 415.1587 428.7679 413.3327 408.6488 396.8897 382.745 374.4521 366.6867 369.9377 390.1882 403.121 408.1026 416.9749 423.6641 425.371 425.5158 425.18 415.8849 415.3146 419.173 443.7631 441.6358 445.7661 463.0015 470.1986 451.5824 471.1293 482.3375 466.5317 454.656 456.6455 464.1401 466.196 462.1422 450.6027 448.417 449.6115 454.4824 458.9439 463.5901 464.5747 463.7275 465.3426 466.5927 467.1401 481.7453 509.6473 520.0212 506.7725 484.7908 468.7539 466.5454 462.1979 462.2882 457.4879 455.1483 453.7499 452.9445 446.6066 440.3693 430.1038 422.6453 414.2618 413.2185 399.117 378.3469 376.7525 372.4928 371.7445 372.6739 383.5693 379.3141 376.0718 373.5243 367.0987 355.0235 352.2493 346.7047 354.5709 372.1274 381.8573 395.552 420.4256 361.3949 342.9815 346.7454 322.5615 295.2926 292.7559 292.7559 292.7559 295.4363 292.7559 292.7559 299.104 321.8792 327.8738 317.0178 312.917 320.6208 345.2639 346.6045 361.5812 371.7083 372.7401 373.5635 365.8138 367.4229 355.5045 339.8291 321.1051 329.4372 343.0613 344.2517 355.2329 368.5502 376.8271 370.7443 359.2308 355.5808 350.3468 348.3598 341.2729 334.4009 328.746 329.987 343.6853 343.736 346.2502 325.6269 323.976 306.7788 300.066 288.3725 280.4861 284.8369 266.8083 288.5988 297.422 293.3695 279.1151 256.4267 255.4728 216.3585 223.5967 251.8765 245.5845 181.023 160.1458 126.5355 117.2576 123.308 101.7791 97.21543 95.41687 87.48196 84.37424 90.25977 94.2808 88.50798 86.10433 84.50809 83.23087 82.12218 81.35764 80.56078 79.52477 80.46803 79.82683 81.20994 81.32024 79.28386 78.37939 77.19145 72.86774 72.23229 73.67432 45.49631 45.49631 45.49631 47.2464 53.06858 50.82619 50.35418 51.29047 51.63715 50.34395 50.09255 50.25327 49.0004 46.48369 46.70425 46.17498 45.64236 45.224 44.30384 43.06264 43.9922 43.05247 42.15445 40.62516 40.62516 40.62516 40.62516 40.62516 40.62516 40.62516 40.62516 40.62516 40.62516 40.62516 40.62516 40.62516 40.62516 40.62516 40.62516 40.62516 64.256 65.24773 63.60189 63.88446 56.21675 71.88422 77.66036 69.49335 67.92779 76.7208 87.42093 101.7617 72.11395 70.56211 46.40075 40.62516 40.62516 40.62516 69.56559 57.56148 45.38141 48.72221 61.63538 69.04833 72.02701 66.47122 63.10295 62.71579 66.76427 53.36481 50.01257 57.20808 60.63071 61.63658 61.96919 61.97046 61.82796 61.7537 52.50552 59.24753 57.28027 54.39415 49.41735 48.75943 49.09328 48.29226 46.80146 45.40144 24.526 22.42225 21.42337 21.23416 18.90652 18.0632 18.0632 18.0632 18.0632 18.0632 18.0632 18.0632 17.99051 17.3095 17.83531 18.21322 18.04186 20.2449 19.67498 14.64946 14.64946 14.64946 14.64946 18.16451 18.48309 18.46769 18.19706 18.38029 22.46315 37.19335 35.08882 49.47871 57.71933 57.65984 56.58869 56.45921 57.35857 57.59631 57.69 57.49681 57.64516 58.55608 59.66884 60.04699 59.94347 59.48716 59.81474 60.35896 60.35476 59.45781 59.69093 59.59491
471.6546 469.072 452.5303 450.6905 447.6909 446.6214 447.0998 459.1007 466.8421 457.1112 446.3633 447.1398 442.4937 439.0157 434.2545 438.2795 424.9117 416.9088 412.1555 408.1631 419.4937 406.8305 399.106 388.9992 390.6887 373.5039 365.882 365.41 395.9319 414.1779 414.4722 409.9077 416.6234 425.1904 417.045 412.1871 424.3239 412.5179 413.8308 434.5013 438.0829 446.2458 461.4221 463.6002 454.5338 451.5824 484.3932 494.0466 461.2546 445.6692 448.4706 458.4836 467.255 456.1346 450.2406 448.007 451.0987 456.3236 464.9611 467.425 466.4294 464.9305 468.4961 469.9322 478.0998 499.201 510.6157 501.3466 488.7906 474.663 456.1682 455.3716 453.9943 450.4996 447.9159 446.2723 460.4077 450.1577 445.4115 437.1505 416.1479 413.9444 411.1102 394.6816 380.0337 385.2388 386.2024 384.8368 379.2847 382.2018 385.9904 384.3098 371.271 368.7584 372.5537 372.6388 363.597 366.8759 373.6061 388.4004 399.2705 413.1357 376.3988 364.8593 362.1989 354.4774 329.3941 304.4466 294.9648 292.7559 292.7559 292.7559 292.7559 292.7559 296.2919 304.8533 300.2601 301.1879 309.1945 333.1475 329.3952 360.1802 364.4061 366.4073 368.8705 369.0473 373.1706 367.6506 344.6848 326.5456 311.437 339.298 344.491 351.6736 364.8004 378.7335 371.0725 375.8766 373.3392 360.5999 356.7562 352.5738 342.9767 336.1599 327.8161 332.8652 331.2592 325.0807 317.9098 324.0706 315.5203 312.3295 301.5259 287.0972 266.1943 263.23 281.3356 291.1938 289.2185 281.0051 254.7847 238.7 226.1318 202.9921 220.5037 203.7818 166.2186 117.433 95.84144 95.84144 81.06476 92.69004 96.47743 98.3142 90.64181 86.27367 83.85285 86.40384 86.48859 84.78802 82.91127 81.75719 81.42881 80.11137 79.16029 79.22897 80.96552 81.39725 80.69265 80.66418 79.42904 77.99894 76.98876 75.06042 73.97425 72.57928 68.91233 47.902 47.55503 55.47987 54.60116 53.06019 52.55002 53.7597 53.33243 51.10798 50.78299 51.39362 51.24887 46.86064 46.43425 45.76955 45.95953 45.43262 44.78704 43.79849 43.64198 44.44956 42.89441 41.21808 40.62516 40.62516 40.62516 40.62516 40.62516 40.62516 40.62516 40.62516 40.62516 40.62516 40.62516 40.62516 40.62516 40.62516 40.62516 40.62516 59.11662 57.18282 56.69477 56.21675 58.24311 71.59315 78.03741 66.94789 66.30345 71.92021 80.3953 103.9207 67.01796 70.52056 46.44787 40.62516 40.62516 40.62516 65.9303 58.38718 45.38141 45.52184 59.54733 67.76271 74.4619 65.72795 63.02443 61.73464 64.11907 52.58991 49.75779 54.29043 60.72914 61.12434 60.95935 61.32129 61.33894 57.34478 55.62954 50.81662 50.86224 50.12852 38.50506 32.87352 30.79562 27.66331 21.45922 21.40142 24.30062 23.22193 22.64935 21.33952 19.30613 18.08226 18.06849 18.0632 18.0632 18.0632 18.07 18.06052 17.28372 16.63034 17.07192 18.06587 18.06636 18.79848 18.52224 14.99742 14.64946 14.64946 14.64946 14.64946 18.17473 18.30945 18.07006 19.60229 25.11426 29.87576 44.81101 53.89677 56.29504 57.58285 56.78904 56.92783 57.39897 57.18938 57.70943 57.70954 57.49681 58.1124 59.85004 60.71542 60.12673 59.22422 59.23719 59.3419 59.1478 59.01359 58.65569 58.65569
485.3864 469.1289 452.4411 451.8585 451.1703 446.1029 444.7645 444.4044 461.4799 479.6117 477.2605 443.399 452.5056 445.8276 444.6718 441.5846 438.9372 427.488 417.6426 408.0818 406.8305 418.3505 425.1873 409.1385 395.985 388.9268 375.4943 365.41 372.4736 398.316 411.8798 412.933 411.2118 422.2624 416.6196 404.5507 409.1038 419.6954 420.8784 430.5734 432.8823 454.7358 461.9606 456.5226 450.188 446.9717 446.9717 470.7601 455.5476 436.9638 440.3047 443.1024 448.675 460.2656 455.0325 447.6811 449.4383 450.617 459.6517 465.1942 469.0671 466.9286 466.6451 467.2393 467.5124 474.96 482.4837 486.7118 486.1314 482.0721 470.5172 461.7914 444.0621 446.0616 439.024 439.0911 446.0732 448.7957 443.1125 440.8901 431.7152 407.8603 396.0565 393.6761 380.0337 384.7238 398.2966 398.1862 390.2901 379.2847 389.0793 391.328 389.8695 383.7902 385.7667 390.8562 385.968 378.5369 383.8948 394.0681 404.2307 418.3964 407.4462 391.5611 386.8917 384.052 360.7108 344.4317 340.4922 329.0727 316.7209 310.948 295.4809 292.7559 292.7559 292.7559 292.7559 292.7559 298.017 306.9189 318.0285 354.0871 358.9985 355.2141 356.8164 364.8401 363.6063 377.2094 355.6316 325.4261 307.5888 319.0592 338.6381 349.1596 367.2081 367.2011 370.822 391.2855 386.1341 372.9062 369.4651 366.1651 355.723 344.9328 335.3742 327.8161 323.0575 309.6005 313.3699 312.7206 316.3508 319.3164 308.6215 291.8061 268.1041 259.6628 262.6429 282.5936 284.2913 280.7595 262.1635 237.9062 218.604 166.8746 181.6774 172.8158 134.6346 115.0903 147.8273 132.6807 111.1087 77.62733 82.48313 81.64739 82.77518 84.65175 77.18161 77.13012 77.3002 82.1425 77.96962 77.55882 80.23244 79.018 77.2817 75.94267 78.21544 79.54999 79.54793 78.73455 77.79353 76.92354 75.96865 74.9184 74.67432 73.72782 72.43468 70.79758 70.63795 65.97404 58.02331 55.29892 54.97492 55.12955 52.7804 51.12738 51.54287 55.32471 58.15597 47.70522 48.77631 46.64083 45.47482 45.45104 44.82967 43.78612 43.85972 44.83828 43.35057 41.50986 40.62516 40.62516 40.62516 40.62516 40.62516 40.62516 40.62516 40.62516 40.62516 40.62516 40.62516 40.62516 40.62516 40.62516 40.62516 40.62516 55.29978 56.73484 57.6426 50.95415 55.45709 62.56152 70.30149 66.30345 69.30875 78.06309 73.02676 88.65436 65.75835 67.81808 43.26564 40.62516 40.62516 40.62516 51.04455 52.1681 45.38141 46.01455 57.33833 64.92201 72.97664 65.91766 62.46902 61.04819 61.24572 58.15511 52.93628 47.60598 50.75189 59.99904 55.26439 59.73231 61.15145 55.87469 51.85606 44.63097 54.40659 46.6467 30.80955 29.37386 19.43493 19.43493 16.05082 17.14827 19.30687 20.89743 21.44995 18.67452 18.10075 18.06105 18.06 18.09771 18.20303 18.0668 17.39956 16.9081 16.36837 15.74382 16.73724 18.47978 18.88389 14.99742 14.99742 15.00931 17.72331 14.85073 14.64946 14.64946 14.64946 17.99235 18.23949 18.33768 20.90954 36.405 48.81849 55.26953 55.01585 55.50947 56.13068 56.44564 56.75545 57.02386 57.69611 56.83125 56.56544 56.96385 57.34814 59.18177 59.29451 58.96923 58.65398 57.8064 57.94459 58.12316 58.80601 59.33413
487.3889 465.4513 452.4264 451.469 454.7001 455.8311 457.2467 443.3136 441.0102 486.3241 524.1561 479.9227 443.399 445.0615 453.2683 451.3052 450.7661 448.093 435.7894 424.525 407.6039 407.2076 421.4553 413.4105 412.7693 419.957 416.529 375.6611 364.6885 377.5742 401.2443 409.7428 411.1842 403.5093 408.0045 404.5507 410.7282 437.286 438.1897 439.8499 446.1718 457.2505 468.6137 483.4543 467.9544 459.8134 450.7018 440.3738 451.7375 450.2127 436.9176 431.335 431.335 437.324 446.1667 455.4716 456.5709 454.6435 457.622 460.7017 468.7221 470.8424 467.0266 464.8264 464.8264 464.8264 465.4343 467.7311 474.0542 479.4886 478.4174 468.4468 451.0276 439.5992 435.7544 433.2798 435.6001 437.4269 439.6608 435.5728 435.794 421.0155 398.0859 389.8862 380.6273 380.0337 393.4802 405.2852 397.958 390.351 380.9068 388.1924 394.3656 392.4506 398.6028 406.3951 403.784 396.3499 386.9926 406.6734 419.9186 422.3197 416.1894 399.7574 392.4467 393.016 384.5413 370.7411 363.7908 363.9491 336.6698 322.7147 309.3793 296.8879 292.7559 292.7559 292.7559 292.7559 292.7559 292.7559 306.7527 332.9844 347.3293 348.659 354.594 350.0954 336.9324 352.9954 349.299 330.5125 305.723 310.7317 327.0238 348.2511 356.6717 356.4625 364.9208 385.7473 388.8241 382.5919 376.2427 374.2334 372.1696 356.8806 341.6548 329.9617 327.2986 328.3675 305.4048 305.026 305.026 305.026 298.0997 305.5083 301.7886 281.2696 259.6628 250.3999 284.6043 272.9987 275.7031 259.0049 195.9851 178.1175 165.5507 173.1093 137.7576 115.0903 173.8191 144.7739 116.7055 95.70361 75.39013 77.24854 78.58506 77.2813 74.43775 72.33149 71.5757 68.40521 69.27782 69.44454 79.49068 78.75471 75.75153 71.04069 73.69165 77.85047 79.67028 78.63166 77.44891 76.0609 75.22765 74.67978 74.47052 74.57336 74.31715 74.22677 74.07664 74.50967 69.25442 64.2746 57.18635 61.80821 52.8005 53.14019 54.68839 70.66065 66.45908 55.04664 55.33733 48.76964 46.35329 45.85008 45.08115 44.17813 43.88735 44.73947 43.91352 42.01601 40.98841 40.62516 40.62516 40.62516 40.62516 40.62516 40.62516 40.62516 40.62516 40.62516 40.62516 40.62516 40.62516 40.62516 40.62516 40.62516 40.62516 42.97112 48.24467 55.98724 42.07326 52.36648 59.45432 65.67409 54.56466 61.35882 70.11662 68.36723 68.00441 63.67916 40.62516 40.62516 40.62516 40.62516 46.99091 54.04194 44.95112 44.10654 48.41368 59.6686 69.10582 66.85898 63.07931 61.2528 61.04819 61.26973 62.91059 58.10261 46.68887 50.54594 48.79694 48.41429 58.95495 50.28966 42.64332 35.82945 30.01941 19.43493 19.43493 19.43493 34.62606 35.47575 30.80583 16.05082 16.05082 19.36119 20.06052 19.66754 18.61309 17.85549 18.07 17.86293 17.90351 17.67672 15.29872 15.41022 16.20853 15.74382 16.91845 18.80271 19.35248 14.99742 15.01836 14.95249 16.37276 17.4125 18.15 14.64946 14.64946 14.64946 15.9078 18.09244 18.14633 32.34734 43.96565 52.35844 54.98275 55.2263 55.63137 55.81932 56.16699 56.42641 57.10511 54.9536 54.413 54.67888 57.55962 58.3699 58.45387 58.52967 58.53072 57.00919 58.0224 58.41242 59.03116 60.39165
466.9435 464.1015 453.7199 451.6006 458.387 468.2697 470.8218 452.978 441.0102 444.572 498.3006 508.7328 451.1972 443.399 459.2467 469.3132 461.4061 454.5024 451.4305 444.7026 428.6989 417.8274 410.7378 417.0741 411.7831 417.1863 430.0828 400.4416 370.7852 363.7402 385.2717 399.6029 407.712 394.7102 397.5268 388.6038 421.1819 450.8297 448.3975 454.1672 461.637 473.9336 479.0634 494.1809 477.1447 459.6281 450.386 431.4882 431.335 435.9757 436.7664 431.335 445.1929 451.4732 440.1864 450.5943 461.7741 461.2794 459.1653 458.858 461.1861 469.8087 469.0927 464.8264 464.8264 464.8264 464.8264 464.8264 464.8264 464.8264 473.4658 472.2891 458.7959 443.0956 429.8157 428.0034 425.0962 427.0215 432.075 432.639 428.0857 425.0851 401.1173 394.3073 384.728 380.0337 380.0337 395.8322 407.2383 390.5037 384.7083 382.8465 394.017 400.5406 404.7141 414.7419 416.061 411.0143 401.0737 389.2375 397.1619 404.6606 407.5585 402.4244 388.7028 382.4062 387.6375 392.5271 381.0872 371.6665 363.9234 346.5612 334.178 317.5395 306.5579 298.4594 292.7559 294.3759 292.7559 292.7559 292.7559 323.1156 325.7261 341.3257 353.4319 345.3726 335.9989 333.4922 334.0284 317.2749 297.1894 292.7559 316.7365 343.2399 358.8247 354.0875 363.2047 374.5285 383.4441 388.7475 383.2342 376.1829 374.7906 376.5487 357.1199 329.916 330.3132 341.9083 337.7943 314.6918 311.7282 311.8701 312.0427 328.8102 325.9226 313.0903 298.4308 239.3088 243.2482 250.7155 260.5018 225.0675 180.561 164.7663 140.8885 161.4807 140.3478 115.0903 162.65 165.7324 117.7419 105.9535 85.06471 72.86947 73.08191 73.51933 71.85242 72.4398 71.18277 67.28236 66.31171 66.79817 68.27663 64.96303 73.4221 69.35004 68.67599 73.19947 76.94922 77.188 76.88899 75.72228 75.5694 74.77914 74.63351 74.32604 73.62759 74.81248 74.29436 73.73888 72.01183 71.7754 71.68629 70.78599 69.20242 66.92251 66.43513 67.85596 65.51291 57.86137 56.23113 54.51862 47.49388 45.74854 45.36837 44.78147 44.25544 44.80968 43.96577 42.21022 41.58783 41.19036 40.62516 40.62516 40.62516 40.62516 40.62516 40.62516 40.62516 40.62516 40.62516 40.62516 40.62516 40.62516 40.62516 40.62516 40.62516 40.62516 40.62516 41.70028 40.62516 40.62516 51.70905 57.46796 49.34285 55.16302 61.04586 68.31946 55.26638 41.68611 40.62516 40.62516 40.62516 40.62516 40.62516 44.86757 42.448 43.56066 46.83805 53.16216 64.65803 64.32184 63.13509 61.04819 61.04819 65.14075 70.40136 52.63449 49.34748 42.11404 42.11404 35.25409 37.76649 29.71037 26.69714 21.01393 21.4211 20.64991 19.43493 26.86088 42.06459 38.84139 32.26062 16.05082 16.77566 18.62142 18.54451 19.03228 18.62136 17.85529 17.46299 17.53483 18.043 15.01791 15.01791 15.01791 15.06294 15.74764 16.86513 17.03461 15.02589 15.01067 15.02 14.94506 15.08557 18.07408 18.07 17.9645 14.64946 14.64946 14.64946 18.02794 24.38051 32.83697 42.41319 48.67781 54.68699 54.96309 54.97644 55.12342 55.0505 54.728 49.4314 53.08483 55.2629 56.1469 57.44284 58.80456 57.68488 58.0759 58.16072 57.60745 55.3242 57.9852 58.77121 60.00357
465.1919 463.1485 452.3178 451.6006 463.503 475.6076 477.4383 464.0589 441.0102 441.0102 460.7825 506.4034 476.8466 445.5821 456.0573 478.4503 476.6672 461.2508 456.1507 456.2191 453.1878 437.2954 419.0702 411.7831 411.7831 416.2806 428.6103 428.4319 387.946 363.7402 365.0243 379.8666 399.6103 398.0803 389.8422 385.6352 435.2555 469.0574 462.1299 471.0441 468.1568 483.8223 497.7766 484.6963 468.7552 456.7707 444.9467 431.4272 431.335 431.335 431.335 437.5574 446.8065 453.9588 449.6601 441.3951 456.3719 462.7681 460.9871 460.8832 461.8363 461.558 469.6826 468.441 464.8264 464.8264 464.8264 464.8264 469.0439 467.8762 451.0898 451.0898 458.6076 446.8995 433.9976 418.0226 423.8634 421.3227 423.7124 429.0739 432.7304 415.4603 406.5893 397.7734 390.2104 380.0337 380.0337 381.7247 404.2298 401.8723 386.8306 384.1337 390.0799 402.0308 409.6431 417.1287 420.6265 416.7853 408.4703 399.7672 396.79 402.3105 400.1705 390.1217 383.6873 376.1357 387.1793 382.0409 384.5629 374.9078 371.429 362.4137 348.6995 331.0673 325.0486 311.5056 298.5315 295.8047 299.3225 292.7559 292.7559 317.7331 315.6235 332.5394 347.6837 348.8412 334.8195 318.915 326.0208 308.8426 292.7559 292.7559 307.4374 339.7223 353.6523 354.7128 365.3421 379.6016 387.3021 397.1209 388.9555 375.5223 373.8162 373.5346 363.9661 341.4634 321.2411 339.1153 341.7389 322.4407 317.1961 312.6965 316.3834 333.7285 339.3125 332.0102 317.5748 271.2017 227.1415 239.4568 235.6565 207.6375 170.1857 154.7391 153.9165 131.9547 115.0903 126.7645 189.9599 162.6167 119.4046 106.8941 95.82659 72.65503 72.65503 72.50416 67.93267 67.65732 67.52517 67.32583 66.34499 66.0395 65.12315 64.86954 66.9873 68.0464 66.31374 64.43678 71.66936 74.5992 74.94476 75.24532 73.91182 74.64401 75.294 74.02702 73.62759 74.57681 74.09083 73.20671 72.58309 72.61853 72.31763 72.14159 71.52181 69.5364 66.98331 63.59829 62.70599 59.76648 56.41116 49.11938 47.16376 45.66394 45.34662 44.79502 44.47401 44.78973 45.16876 42.23756 41.98575 41.7374 41.32349 40.62516 40.62516 40.62516 40.62516 40.62516 40.62516 40.62516 40.62516 40.62516 40.62516 40.62516 40.62516 40.62516 40.62516 40.62516 40.62516 40.62516 40.62516 40.62516 43.12967 51.13366 46.20622 44.66537 53.46259 54.67862 48.0858 40.62516 40.62516 41.63886 42.05958 44.38405 40.62516 43.00385 42.33979 43.12096 44.58234 46.10824 60.61639 63.09795 64.10597 62.48734 62.40361 64.58237 72.38976 53.6834 50.78193 60.43024 55.82806 37.55807 29.81379 29.51053 27.64422 20.74385 20.74385 41.61757 32.41778 30.40554 39.91476 40.07892 33.35295 16.05082 16.60567 18.41069 18.48367 18.56531 18.09892 17.97878 17.63512 17.28647 16.47277 15.01791 15.01791 15.01791 15.01791 16.01577 16.02595 15.15455 15.01036 14.99784 14.96999 15.02 14.83838 17.25138 18.06026 17.20658 15.15925 14.64946 14.64946 17.99833 20.8197 33.83349 35.90329 48.72663 53.96745 54.61111 54.44104 54.67823 54.38507 52.21396 49.4314 53.83243 55.19899 56.27906 57.72358 58.74038 57.29073 57.81369 57.90816 57.88242 45.82054 61.25431 58.93386 59.71725
477.9387 473.3952 452.2105 461.9279 464.4328 487.3962 485.6781 457.4936 441.0102 441.0102 444.1647 490.4204 490.8392 476.4616 465.796 476.8716 482.3179 476.1792 463.6161 457.7242 468.7943 458.724 431.1977 413.4859 411.7831 411.7831 419.7923 425.2792 419.2873 380.7369 363.7402 363.7402 372.419 392.1496 385.6352 389.0788 431.5339 461.8642 484.1378 495.543 468.9746 477.7058 472.1323 462.0752 453.0028 446.1244 437.7269 431.335 431.335 431.335 431.335 431.335 439.9428 445.0969 448.1089 444.6995 444.0934 451.8553 461.9112 462.1758 461.3385 462.4747 464.3177 468.0575 468.1853 464.8264 464.8264 464.8264 470.0855 471.7434 467.2082 456.5242 439.0327 439.0327 435.9768 429.9284 415.9327 406.4626 411.6282 407.5651 415.6221 413.2425 398.296 395.233 395.9219 383.7849 381.5242 380.0337 385.9029 403.4944 397.7959 387.6074 389.1432 404.4961 416.8696 421.464 423.8663 421.537 417.0838 409.8094 406.4848 402.7795 390.5826 371.8047 364.4718 361.8858 366.224 377.4958 370.3477 371.107 372.601 377.7121 365.9474 357.1226 345.2621 336.2011 321.3686 305.4573 297.1327 292.7559 292.7559 292.7559 292.7743 316.9805 336.8195 351.0494 341.056 328.2665 298.4092 296.1549 292.7559 292.7559 292.7559 324.9613 331.4514 355.9842 368.6322 384.5845 391.4012 402.476 403.7158 383.3833 357.4122 361.4389 358.5756 347.2798 323.9719 319.3513 328.7432 331.7902 324.9192 321.9177 327.7873 336.0263 348.5675 342.3864 322.0504 288.5517 246.6346 181.7574 177.6758 176.8456 160.5125 121.6587 118.9213 115.0903 148.7941 195.1651 213.3871 159.8878 123.2653 110.8656 104.4829 87.34721 77.69306 73.25124 70.58273 69.19492 68.19256 68.41641 71.96775 69.72003 66.47189 63.37683 63.32469 65.64053 63.32703 61.58789 62.38119 64.01681 61.58789 66.74683 73.07393 71.68536 66.85242 74.74587 73.94952 73.62759 73.01607 71.89905 71.55718 71.25529 71.05473 70.63167 69.08072 66.20744 63.45002 61.97009 60.64314 59.53311 57.47364 55.04507 46.07181 46.62462 45.25095 44.67943 44.51674 44.83431 45.0503 45.25144 43.28187 42.80635 42.01092 40.83296 40.62516 40.62516 40.62516 40.62516 40.62516 40.62516 40.62516 40.62516 40.62516 40.80011 41.56295 40.62516 40.62516 40.62516 40.62516 40.62516 40.62516 40.62516 40.62516 40.62516 40.62516 40.62516 40.62516 40.62516 40.62516 49.74887 55.94261 56.49787 56.24774 52.26688 40.62516 40.62516 40.62516 42.08264 42.50587 41.63674 54.33563 66.21339 68.77336 67.08916 63.73318 65.03938 78.53979 54.2618 54.26502 61.93377 30.69146 29.77234 29.77234 37.16205 36.32848 34.47334 59.85934 47.78206 55.71286 52.26374 41.79506 42.4051 40.49677 31.00192 16.05082 18.02866 18.08236 17.7465 17.6981 17.8392 17.43814 16.65718 15.93273 15.37439 15.0799 15.01791 15.01791 17.1833 17.18756 15.15455 14.9907 15.01248 14.93452 14.93452 14.83136 14.8614 15.63017 15.09669 14.91651 14.67619 14.64946 14.64946 18.87502 38.80688 52.79598 52.00877 53.6926 53.55566 53.1492 47.88961 52.48789 40.33899 51.58504 54.19178 54.87939 55.03694 57.41746 57.42287 56.82517 56.50365 56.35873 55.206 45.82054 45.82054 45.82054 59.73025
457.8148 455.6395 456.8123 454.4902 457.2503 462.1941 465.5266 466.4176 441.3604 441.0102 446.8434 465.1359 508.0995 500.6195 486.6069 479.3793 483.0403 484.2431 480.5478 458.4922 458.3234 464.3519 450.9152 411.7831 411.7831 411.7831 411.7831 415.655 424.0634 410.9539 388.7055 364.7799 359.9244 367.6353 376.6941 392.0958 426.2357 440.7525 484.8637 499.4546 470.0174 447.8017 445.5853 436.514 441.5063 443.2723 442.5456 437.821 431.335 431.335 431.335 431.335 431.335 443.4264 447.5397 446.894 449.2859 452.8268 455.5157 455.8245 457.5407 457.8599 465.2698 468.3514 466.3355 464.8264 464.8264 469.8646 471.5742 472.3669 471.4325 467.6471 455.7931 440.9211 423.6828 419.6607 420.0803 413.7289 405.3008 405.0398 405.0398 405.0398 395.233 395.233 401.7232 406.905 380.8096 380.0337 380.0337 388.1539 402.9565 390.9642 388.7478 401.7578 416.966 423.3686 426.2688 423.5433 420.6127 416.0386 413.8429 406.6734 397.9807 393.3027 385.0822 363.5557 360.038 364.6052 366.9747 354.388 360.3299 368.8471 373.2192 365.5966 366.3862 350.915 338.6894 320.2851 307.6409 296.7576 292.7559 292.7559 292.7559 292.7559 318.7117 347.307 339.9446 325.9891 313.688 295.223 292.7559 292.7559 292.7559 297.6088 329.7036 358.492 373.8445 388.9957 396.8428 400.8013 401.0191 392.6575 370.6758 343.9955 336.1761 341.9414 324.6045 305.4975 309.4453 319.1891 318.654 321.9623 329.5116 333.3901 335.1027 334.5847 321.5072 294.7393 256.1442 209.321 165.3537 138.4399 138.4399 118.9213 132.3635 157.8697 192.3701 243.3174 214.75 163.1565 127.0452 119.7293 107.7588 100.3263 95.84747 80.50281 80.25294 71.76053 83.44923 80.33543 78.39772 77.49339 76.42953 65.50574 62.18327 63.0363 61.6479 61.58789 61.58789 61.58789 61.58789 61.58789 61.58789 61.14566 61.14566 61.14566 61.53138 73.06573 71.24432 69.4806 69.95721 59.82891 69.77102 69.59587 67.44716 63.89309 63.04472 61.48439 60.76685 60.12119 59.08055 58.26632 53.14593 48.67834 45.81077 45.07102 44.7166 44.66784 44.77917 45.29642 44.27401 42.60918 42.25821 41.08287 40.62516 40.62516 40.62516 40.62516 40.62516 40.62516 40.62516 40.62516 40.62516 44.60928 44.91657 40.62516 40.62516 40.62516 40.62516 40.62516 40.62516 40.62516 40.62516 40.62516 44.15254 55.82768 67.69131 68.80624 72.99879 67.36806 64.33482 66.91663 65.77817 64.18169 40.62516 40.62516 40.62516 40.62516 40.62516 40.62516 47.74821 66.79604 73.32643 72.06828 64.96765 63.0691 74.20866 57.9798 51.87579 30.69146 39.78706 48.16062 36.54555 38.21723 36.23333 36.26004 58.7 58.05496 53.75405 52.095 52.72587 51.66482 43.00773 31.73939 15.41954 18.62189 17.90404 17.09939 16.53387 16.53603 16.40603 16.10274 15.7914 15.30388 15.06511 14.95076 14.95076 14.95076 14.95076 14.95076 15.02 15.01995 14.9625 15.00046 14.82216 14.85718 14.92592 14.74994 14.71809 14.71 14.64946 14.64946 17.99122 25.60824 52.75762 52.71961 52.7131 51.93782 51.93273 41.6025 49.24038 40.33899 51.88562 53.23133 52.95765 53.69012 54.2252 58.50687 58.30803 55.90828 54.68484 50.53696 45.82054 49.22188 53.99856 58.8792
450.1989 443.5432 446.9536 449.3146 448.8212 448.7394 448.7303 451.3896 452.0054 441.0102 444.2144 444.2144 509.5321 518.41 495.6468 496.2604 492.3542 488.2693 480.7564 471.9612 454.4998 455.7269 452.7856 425.3374 418.43 418.9031 418.6365 418.6232 420.0483 425.6395 422.1119 401.066 372.8941 359.9244 358.8895 383.361 417.5861 445.5282 452.5807 454.9505 463.2395 442.1355 438.8807 414.0393 429.1986 443.8708 443.0264 452.6827 445.6474 431.335 431.335 431.335 431.335 431.6271 445.7805 448.9061 447.8823 452.5165 459.9042 462.4554 459.6931 457.5407 458.2719 467.8031 466.125 464.8264 464.8264 471.149 473.911 473.5966 473.7807 471.0072 465.1873 455.0733 440.861 421.7673 407.2134 410.1508 405.0398 405.0398 408.3932 411.9632 395.8778 395.233 415.121 415.4186 394.5358 380.0337 380.0337 380.0337 380.0337 381.3487 390.0145 404.3884 417.8262 422.687 425.5474 423.0657 419.3802 417.1013 415.6143 412.1533 406.8825 399.7918 395.9406 380.4842 358.4059 353.3997 356.0266 346.8579 341.6105 350.6382 359.034 367.3476 360.8257 355.461 345.2021 331.6677 333.2776 330.6976 309.4787 292.7559 292.7559 292.7559 297.6173 328.6085 338.1387 330.5908 328.8782 308.0667 292.7559 292.7559 292.7559 309.2747 330.1418 357.1179 374.6088 396.7704 399.3629 390.9657 397.1105 392.4148 376.8217 359.7774 339.1749 308.7326 309.115 301.7975 303.6686 303.9836 310.9399 330.411 336.8893 332.1048 330.1758 329.8691 337.1182 308.0045 269.2173 238.7313 211.9304 175.4348 162.8959 134.0737 138.3311 174.2967 221.7981 270.0256 203.0382 148.762 140.6472 117.778 108.2379 105.2661 93.88455 97.50564 88.65769 80.23958 86.60829 87.30302 85.63092 83.01523 82.71083 72.23212 61.79143 61.58789 61.58789 61.58789 61.58789 61.58789 61.58789 63.24881 69.60374 70.13979 69.06989 66.24318 60.37604 52.0206 57.12009 56.8335 60.17779 54.1044 52.30125 64.25782 63.85524 62.18467 61.94765 61.62859 61.33648 60.88299 58.9966 49.19278 47.70233 47.15419 46.46585 45.7167 45.20738 44.03809 44.03823 44.95313 43.93497 43.5514 42.50796 41.56533 40.62516 40.62516 40.62516 40.62516 40.62516 40.62516 40.62516 58.29356 76.5488 66.98621 55.23027 40.62516 40.62516 40.62516 40.62516 40.62516 40.62516 40.62516 40.62516 48.04334 47.8603 63.07716 79.57261 90.45601 84.7649 68.3186 66.73435 66.9267 67.22827 67.43285 41.76795 40.62516 40.62516 40.62516 40.62516 40.62516 40.62516 55.89183 65.36855 71.70573 61.45396 58.79679 66.71296 53.56052 40.62516 45.49625 51.98124 52.83232 41.93227 47.95245 48.13402 47.7266 47.64058 60.70446 58.422 52.31363 52.96879 52.36812 45.48345 32.4741 30.48561 15.41954 15.41954 15.41954 15.25093 15.75675 15.54991 15.31886 15.08902 14.95076 14.95076 14.95076 14.98694 14.95076 14.95076 14.95076 14.95076 15.02097 14.90156 14.90156 14.71948 14.71948 14.71948 14.71948 16.09389 18.25222 14.64946 14.64946 14.64946 20.6673 50.60105 51.95747 51.67419 51.01917 50.19949 52.36269 33.84767 50.33373 49.76065 40.32627 51.84526 56.89627 53.50132 53.83799 54.1222 55.34694 47.52176 45.82054 45.82054 52.35053 52.43424 60.76379
456.0801 442.8432 443.1689 444.285 445.8327 445.513 445.6396 448.2013 451.0681 441.0102 445.9196 451.8149 497.9349 536.2511 508.3519 512.4447 504.1331 499.6449 484.1904 474.4993 458.2395 451.1272 446.2698 434.6071 429.4689 419.2163 419.1208 424.5049 421.8831 419.095 418.4818 402.1858 387.2573 361.5656 357.9609 375.5063 422.7541 437.6507 440.5202 432.7332 444.4601 436.1861 433.8611 414.0227 403.9778 442.6486 443.1368 448.4613 453.9459 431.335 431.335 431.335 431.335 431.335 442.0385 451.1299 445.7809 452.8324 459.6985 465.63 464.8128 459.0221 457.5407 463.216 469.404 464.8264 464.8264 470.1263 472.2766 473.1392 471.5222 471.5785 468.0753 459.8782 448.0508 438.5697 421.3687 405.0398 405.0398 405.0398 412.4337 417.343 410.9688 407.0131 409.8516 416.1129 389.3042 387.865 380.0337 380.0337 380.0337 381.7535 394.7929 407.028 422.9104 428.1975 425.2547 422.687 418.7848 413.6827 414.4054 412.5299 408.7337 401.7886 397.6278 391.543 373.0504 357.4384 350.9437 352.3282 351.8894 335.5918 343.5823 351.9107 354.2027 349.5393 345.1913 336.7803 333.9641 349.9164 326.5142 292.7559 292.7559 292.7559 292.7559 308.2743 324.2999 319.8062 326.2323 306.1713 292.7559 292.7559 292.7559 315.7707 327.6758 360.2298 377.6668 394.6308 392.5097 371.7056 390.4866 382.0874 371.2509 359.7109 345.3419 317.5085 298.6099 294.5704 296.2155 294.3124 317.6532 333.6338 329.4714 325.9001 324.8835 334.5687 344.0593 332.9469 297.0223 261.2797 229.1575 204.9976 183.9086 156.8318 134.0737 160.3725 226.7251 267.5523 191.5372 155.4251 146.9991 125.038 115.3876 102.3928 105.346 100.651 90.82481 86.73169 85.85651 88.53557 85.46986 84.03231 82.96948 85.20294 68.6865 61.58789 61.58789 61.58789 61.58789 61.58789 61.58789 68.13413 76.04592 78.05464 78.07296 73.01834 66.44051 57.52912 51.70154 55.01373 54.36367 52.49253 52.08043 51.74773 53.35627 61.01891 61.26921 61.04808 60.90667 59.15516 54.01285 47.81447 47.24312 46.76089 45.98589 45.37332 45.53341 43.96818 43.31374 43.87341 45.36686 44.17391 43.02549 42.30829 40.72348 40.62516 40.62516 41.78416 40.62516 41.81557 56.65766 62.94188 66.43662 63.27674 50.74673 40.62516 40.62516 40.62516 40.62516 40.62516 40.62516 40.62516 43.6857 55.47691 50.15757 61.63346 77.78266 105.0537 84.45263 70.51424 66.2825 66.27895 66.87048 66.57665 49.63447 40.62516 40.62516 40.62516 40.62516 40.62516 40.62516 47.3246 53.19399 61.64983 57.18481 55.75955 62.51609 52.88383 40.62516 52.70012 55.92959 56.239 45.09118 49.28948 61.83477 61.36269 55.81236 59.41605 61.63459 54.92159 53.52381 52.52852 52.53868 34.88568 29.84288 24.83823 21.33121 18.93999 15.25093 15.25093 15.08902 15.08902 16.52799 14.95076 15.01018 14.9976 14.95076 15.01237 15.01961 15.16697 15.01189 14.90156 14.90156 27.06688 24.47989 22.39509 19.5191 16.5123 22.04176 20.07592 14.64946 14.64946 14.64946 19.99398 38.78022 49.52877 50.08526 49.24181 49.91952 42.5928 33.84767 49.68105 35.4966 50.69801 48.46502 53.15672 52.67856 52.18123 50.89738 49.39426 49.16195 45.82054 47.81276 52.44691 61.53656 60.48902
452.2949 446.0982 442.8432 442.961 445.6036 442.6316 435.8372 441.537 445.1971 441.0102 450.2173 455.679 461.6136 495.5942 521.3253 507.4082 509.0065 492.445 485.0325 467.5862 462.2781 457.4162 448.093 434.7234 425.3801 429.7689 423.03 419.5581 428.9392 432.1159 431.6844 427.6028 400.393 376.4597 359.2735 357.9609 395.5911 419.7076 428.6534 419.2428 414.5745 403.9778 403.9778 403.9778 403.9778 444.7192 449.4431 454.5659 453.6305 431.6049 431.335 431.335 431.335 431.335 431.335 436.3816 443.1774 450.6229 457.6061 460.9964 468.6308 466.922 461.1649 459.3553 466.2351 469.2473 464.8264 464.8264 465.6895 468.1968 468.4516 466.8563 467.6432 463.2732 456.1525 448.1561 441.4097 428.2693 413.8755 407.9457 414.3122 430.0054 424.9608 413.8095 406.9955 414.0087 394.052 382.8158 380.0337 380.0337 380.0337 392.7024 405.9411 415.8959 429.3952 437.0351 432.8624 421.4155 416.5198 412.6599 410.6313 408.4186 408.3592 404.9542 400.6593 394.2207 384.4932 373.5304 359.7576 351.9829 359.3652 349.3765 329.637 337.5761 340.5566 341.708 338.2157 338.244 334.0844 340.9795 336.5459 292.7559 292.7559 292.7559 292.7559 292.7559 292.7559 293.472 295.3558 292.7559 292.7559 292.7559 292.7559 313.7576 349.8384 367.6367 376.9359 387.4851 386.7863 373.1343 364.9664 356.9707 357.9018 343.9099 335.4387 318.6079 306.9502 292.6882 290.4256 293.8456 318.6574 323.0568 322.8607 322.6961 318.984 327.7793 342.8283 349.1843 331.3132 295.7707 257.1198 232.4976 209.6049 177.9518 134.0737 134.0737 200.633 259.1304 193.6028 157.8091 145.3642 134.2708 119.5884 106.3473 109.0569 106.1621 90.3466 95.92678 90.3093 87.8718 85.33202 84.79448 84.51899 83.61458 82.4287 68.13316 61.58789 61.58789 61.58789 61.58789 61.58789 73.27391 81.95791 79.96524 78.82768 78.73969 75.35664 63.28581 57.84941 51.70154 52.21653 52.52446 51.73436 51.30979 51.30979 51.34056 59.40947 58.94618 58.02269 55.89727 54.86705 47.10098 46.63437 46.37458 46.06225 45.44019 43.54016 42.90207 42.71984 43.14299 45.09254 44.271 43.39764 42.55514 41.32189 42.44719 42.44801 40.62516 40.62516 68.71464 65.76426 64.06638 61.37669 51.03264 47.42392 40.62516 40.62516 40.62516 40.62516 40.62516 40.62516 40.62516 50.16753 65.70518 58.96977 62.80501 91.16904 126.2038 90.6429 64.75713 66.04482 65.02785 66.83772 65.16961 63.2746 49.27931 40.62516 40.62516 40.62516 40.62516 40.62516 40.62516 40.62516 48.93547 51.92825 51.20574 57.46893 53.84643 40.62516 59.07397 61.40824 63.32296 64.66113 64.13117 64.13745 63.37906 61.13419 62.4066 62.39786 57.20132 52.91607 52.06306 51.99265 42.76134 26.07357 24.20332 20.54211 19.3102 20.9479 23.0824 24.25544 24.17408 22.28677 31.96621 15.02047 15.02 15.02 15.02 14.98242 14.90156 15.02921 14.91263 14.90156 26.40678 24.21308 21.96796 21.72902 23.95569 23.29714 20.71197 17.90985 14.64946 14.64946 20.05003 38.97993 46.58284 44.47379 36.45637 49.47591 30.76325 43.92968 46.67517 29.48752 49.01486 49.28104 51.86634 49.07233 33.20218 31.80472 34.22531 45.82054 49.18528 49.20074 55.47854 65.98444 66.74764
449.6632 447.6252 442.83 446.5117 434.885 433.4479 437.3842 432.0511 432.0511 435.1086 432.3561 462.6663 465.1781 476.9472 493.08 504.1317 482.0692 481.2809 479.3277 474.2225 467.534 455.7987 450.7888 441.3437 429.3265 430.9901 429.3715 419.3906 419.7194 429.7198 422.1779 418.2834 404.7445 381.4199 363.9015 357.8559 372.8619 422.7646 421.4209 413.4952 414.6446 421.5787 403.9778 403.9778 403.9778 445.6712 469.5596 460.5899 440.7023 437.6614 435.1913 431.335 431.335 431.335 431.335 432.3375 446.3771 452.468 455.4862 457.0354 461.6342 471.535 467.0113 463.1012 461.035 465.4778 468.5549 467.2727 465.0259 463.7912 465.761 465.3245 464.7382 464.2235 459.8675 455.9023 451.9627 443.2068 436.2141 425.7462 425.4095 443.7519 443.8334 417.9222 402.8578 408.7006 395.3121 391.2772 380.5225 380.0337 380.0337 399.1098 411.508 420.0447 430.6669 436.7277 439.9592 429.9386 414.9258 409.6955 408.2456 402.351 402.5705 404.9734 403.6943 398.8786 392.4778 381.5796 370.2486 357.5377 347.3979 352.2951 345.2675 321.3402 329.4968 332.1846 328.8505 331.7307 329.8731 322.6322 335.2428 311.0303 292.7559 292.7559 292.7559 292.7559 292.7559 292.7559 292.7559 292.7559 292.7559 292.7559 292.7559 302.3757 341.9684 378.0272 391.0066 382.9159 370.4948 367.289 346.149 330.7722 336.5598 328.1486 324.9753 320.815 318.2782 302.626 281.8504 291.5556 302.0981 307.1948 319.3351 320.7028 312.2446 307.7085 329.2967 323.0331 317.9335 287.3337 256.8748 217.6835 155.5192 143.9183 134.0737 146.8679 197.013 243.5529 197.7057 172.7876 140.2261 135.0443 127.6473 114.9354 107.7952 100.5304 101.5013 94.43203 94.84536 89.25864 87.16541 87.1661 85.0319 84.70818 83.50048 80.49264 61.58789 61.58789 61.58789 61.58789 62.02077 79.47235 80.9296 81.67416 82.26901 80.2047 79.05267 76.70427 66.08521 58.0836 51.70154 51.65888 51.88227 51.30979 51.30979 51.30979 51.30979 51.30979 51.30979 45.86647 45.86647 45.84811 45.91547 46.02344 45.75536 45.01323 44.11565 42.37203 41.70024 42.293 44.15343 44.07537 42.12908 41.91166 41.32691 41.01013 40.62516 40.62516 62.34402 71.77556 72.65527 71.75478 65.60406 55.00732 48.06335 40.62516 40.62516 40.62516 40.62516 40.62516 40.62516 51.72725 60.52367 73.32869 67.69084 65.46021 97.03752 128.0475 91.52436 61.0822 61.80109 63.3066 64.6529 63.56092 49.27931 51.99059 54.41661 65.59456 44.87356 43.86832 40.62516 40.62516 40.62516 40.86389 47.86256 46.15175 50.87061 49.68801 40.62516 67.12483 64.63338 64.31632 64.43781 64.23258 63.65129 63.11366 61.13419 62.37082 61.78767 55.74087 47.31762 49.48061 46.71561 49.59076 26.41718 23.54851 20.44798 20.3427 22.73478 23.27082 24.40027 24.22094 29.97552 30.96054 15.00064 15.02 15.02 15.02 15.02 14.90156 14.90156 14.90156 15.64763 24.83916 24.11328 23.18236 22.35194 21.64719 20.46655 19.19865 16.16411 14.64946 14.64946 27.79946 35.73001 40.63373 36.51514 52.28994 30.76325 32.62984 43.31559 39.77519 29.48752 29.48752 29.48752 29.48752 29.48752 29.48752 29.48752 40.18232 46.18419 48.40819 50.25019 52.07037 62.27766 63.51691
449.6877 449.7188 445.0161 440.9687 436.8838 432.0511 432.0511 432.0511 432.0511 432.0511 432.0511 450.056 469.938 481.8113 486.687 495.2628 487.4226 493.5721 488.5286 470.8141 459.308 448.9987 453.7028 452.1706 448.6884 428.9748 424.9045 419.5961 412.735 413.464 416.3001 416.818 406.4546 390.9653 367.4897 363.8503 357.8559 417.3987 430.8165 412.5879 417.1023 433.1917 417.5175 403.9778 410.2204 451.5239 473.0479 444.5108 440.3019 441.2085 445.2556 431.335 431.335 431.335 431.335 431.335 447.4144 456.4419 455.0709 455.1836 455.4396 463.0393 467.9214 464.828 462.4135 461.4285 461.4285 465.954 468.6233 461.5685 461.652 463.2866 463.7128 461.9597 462.5913 461.4589 457.5938 450.6193 443.5194 436.9696 426.4676 431.8434 443.4487 419.4887 401.8396 397.1017 390.8792 388.3748 382.8686 380.8829 380.0337 398.3167 415.6785 422.7383 429.0802 433.3595 439.7497 435.1574 421.6686 407.0542 405.1288 401.9228 396.4568 401.8643 404.5049 400.8422 393.5787 390.8323 380.9714 369.3032 351.606 341.9202 342.2007 328.5693 314.7144 325.4246 324.7722 317.679 317.2031 313.7513 316.131 317.8947 293.0173 306.7273 292.7559 292.7559 292.7559 292.7559 292.7559 292.7559 292.7559 292.7559 292.7559 292.7559 321.8362 373.1513 391.1004 380.0359 359.4114 349.2076 328.521 308.81 308.6116 316.3462 325.9392 333.1268 331.089 312.4239 296.3749 278.2516 297.3117 299.3376 296.947 307.7264 306.4626 288.4444 301.4247 296.1173 278.2596 238.0335 202.6022 195.2102 143.9183 169.7431 157.2901 161.1381 206.8124 256.1046 193.3045 166.6593 144.9206 136.4147 131.2609 124.8413 118.6458 107.8085 99.97742 108.2749 103.2373 94.55473 88.38926 86.03259 85.58511 85.0975 84.44769 82.63445 61.58789 78.22971 65.35008 61.58789 66.45041 81.60143 81.85747 81.94087 81.86347 82.12984 82.57147 78.94605 72.80975 62.98219 59.88214 51.65888 51.65888 51.30979 51.43964 55.36363 56.30307 60.24616 61.32405 53.72217 49.20781 46.03774 45.31898 45.60522 45.53955 45.00061 44.30837 43.06061 41.70024 41.70024 42.63763 44.52231 42.34638 41.27642 40.66244 40.62516 40.62516 52.14088 76.70493 76.29529 78.4011 75.91568 65.30124 56.65392 57.48272 41.28522 40.62516 42.09866 40.62516 40.62516 44.04843 62.01099 73.02047 77.66858 74.11436 74.49039 100.9913 127.5412 94.82188 62.07621 58.94901 54.64393 55.46839 49.43905 58.80468 70.12296 65.29522 64.3362 62.21434 53.17772 40.62516 41.71234 40.62516 40.62516 42.88384 46.10914 45.77761 43.63219 40.62516 65.57967 63.69357 63.4662 63.85703 63.84776 63.52287 63.02901 62.07345 62.17389 62.16234 59.59742 52.2996 39.42797 32.68272 29.35388 26.54229 22.46883 20.3427 20.96368 22.1533 24.55268 27.01717 24.85925 32.37981 29.54571 15.00064 15.02 15.02 15.02 14.96846 14.90156 14.91693 24.38266 24.42585 24.16781 24.17229 22.99527 21.60155 21.25833 20.33825 18.87074 14.64946 14.64946 14.64946 26.48727 30.74558 39.08298 35.35009 48.75227 27.19481 29.48752 29.48752 29.48752 29.48752 29.48752 29.48752 39.5223 30.63498 43.32019 34.41153 43.63346 40.18232 44.73942 49.26009 53.02588 56.79535 60.36758
446.7709 447.3008 446.851 438.9404 433.0268 432.0511 432.0511 432.0511 432.0511 432.0511 432.0511 432.0511 465.5481 478.649 495.0292 508.2567 496.9635 499.1273 497.7367 470.6312 454.7071 447.2691 447.2691 448.872 450.2135 440.6457 439.7438 441.0081 412.735 412.735 414.7963 419.2779 409.4503 401.9729 369.8509 365.3646 355.7111 390.5096 427.0223 412.5879 412.6375 425.5954 405.3613 403.9778 412.7954 454.4605 468.3413 450.3843 440.5379 441.7246 443.6414 438.3377 431.335 431.335 431.335 431.335 437.1438 455.2523 454.1049 452.8149 453.465 455.7784 464.9786 464.0582 464.0422 465.3589 462.9641 462.0977 465.924 464.0953 460.6977 460.5147 460.426 459.5995 459.5317 459.5317 460.1314 456.3338 449.5602 441.8863 432.3785 424.0215 429.2458 423.0709 409.0947 396.0404 389.9769 380.8829 380.8829 392.072 382.5865 394.1039 413.0243 423.6689 428.3448 430.3554 433.0688 436.0284 431.2038 420.8216 411.635 391.5941 383.1352 393.6787 401.2444 401.8395 392.4447 389.342 387.2721 382.3826 368.218 350.9303 333.2482 336.2121 316.1391 314.7144 317.9225 311.3563 302.6751 306.5796 310.7513 311.0734 301.6667 317.305 300.3206 292.7559 292.7559 292.7559 292.7559 292.7559 292.7559 292.7559 292.7559 292.7559 297.2123 345.9817 366.7501 373.4831 364.8849 341.4462 322.146 293.2422 305.8055 315.3764 327.871 341.6205 344.214 331.5584 314.7842 300.2001 272.7894 282.9134 280.2988 286.8734 294.9488 284.2225 279.8376 280.4577 236.3447 203.1709 157.6636 143.9183 171.7504 191.0356 194.3518 198.9789 217.0117 247.6903 184.2256 168.847 151.6523 139.7616 131.8394 127.1721 115.9386 112.9592 119.4509 115.2726 107.1044 100.9944 89.94144 85.12827 85.1333 84.49442 82.54103 81.80875 72.36075 67.43943 61.58789 61.58789 70.92297 85.48274 91.68443 91.78342 87.69486 80.88205 80.88205 85.43007 80.59904 75.44771 62.27705 60.78393 51.86843 51.46301 57.48226 57.76121 60.04955 73.22021 70.67953 57.0579 54.94973 47.65538 46.05422 45.31898 45.2701 45.48029 44.7313 43.46965 41.98836 41.70024 42.04115 47.50832 42.2387 40.62516 40.62516 40.62516 40.62516 76.67787 77.47375 78.89632 78.67623 76.25197 66.30506 56.72935 47.72966 41.82204 41.06503 40.79216 40.62516 40.62516 48.25769 65.95734 76.56167 83.06525 83.94395 84.98561 102.3586 123.6894 96.55457 68.5671 66.98196 55.24047 54.64393 59.07758 50.34925 77.10259 65.41783 62.35885 50.50333 42.80447 48.78391 48.12621 42.67754 40.62516 40.62516 40.62516 40.94555 40.62516 40.62516 60.12408 62.45065 62.3009 63.25987 63.5891 63.253 62.91902 62.4612 61.85281 61.16562 54.30366 51.46221 52.37937 49.53381 42.71917 24.95053 21.09172 20.67533 21.09427 21.69612 38.58114 40.86786 39.83529 30.04606 28.79902 15.00064 15.02 15.00064 14.90156 14.90156 14.90561 25.32434 24.19106 24.16781 27.11079 23.62984 22.57638 21.58505 21.08073 19.55069 18.35773 14.64946 14.64946 18.82347 18.30142 20.30057 27.50801 26.80586 26.80586 26.80586 30.46676 36.2346 37.54409 32.15053 41.08871 47.36914 48.10791 45.80492 48.87689 46.38626 45.58968 40.18232 40.18232 47.93521 51.87065 50.00922 57.80948
447.1462 447.7098 437.3381 436.3294 432.0511 432.0511 432.0511 432.8188 433.8496 432.0511 432.0511 432.0511 452.9316 472.7509 492.1166 516.6594 511.4085 492.1614 491.1848 486.6505 470.8615 449.4573 447.2691 447.4246 446.2684 443.9164 442.9574 445.3506 412.9694 412.8294 412.2979 416.7806 410.792 396.1745 385.7697 366.9341 355.7111 365.2277 394.8443 412.591 414.4345 403.9778 403.9778 403.9778 421.474 438.9259 452.2877 456.64 443.9742 439.6467 438.55 439.5965 431.335 431.335 431.335 431.335 431.335 444.9832 451.413 451.1219 451.2086 452.2151 454.5304 457.4734 462.4298 463.8057 464.2098 463.0484 463.5454 466.5406 465.5399 463.6853 462.1626 463.1852 466.0815 465.2577 457.0857 455.6397 454.6735 448.5636 438.811 428.9589 421.4568 417.8242 414.1488 408.9905 401.7573 393.5715 380.8829 381.1879 382.3815 395.2997 413.1719 422.1142 427.4296 429.4074 430.2876 429.7135 430.1021 429.3388 424.4096 403.5263 376.7965 383.4346 392.344 392.6845 390.8487 380.8291 386.1747 384.3207 382.5641 367.8417 351.6189 331.6331 320.3571 294.5616 306.0139 302.805 292.7559 292.7559 294.364 301.5658 306.8974 292.7559 303.2184 292.7559 292.7559 292.7559 292.7559 292.7559 292.7559 292.7559 292.7559 292.7559 292.7559 301.3566 321.8508 357.7733 369.2487 320.0616 285.2088 278.6432 301.2915 316.1965 331.5407 340.8369 348.4203 333.251 295.3853 285.477 246.1572 262.8758 278.9434 280.9582 284.0424 287.0917 273.0356 262.0542 237.5677 193.288 143.9183 143.9183 206.4999 244.6325 227.8688 217.1572 232.3888 209.86 192.8262 165.577 159.5964 153.062 143.6717 134.9236 128.8158 129.7508 143.0261 133.4087 122.1715 104.6883 95.28576 87.77816 84.3636 84.37528 75.72223 68.36572 65.99463 64.25124 61.58789 62.98462 79.55022 87.8888 94.46859 100.4725 100.2876 92.40223 82.1388 81.16255 83.01351 79.47099 63.31089 62.93647 60.61284 51.96557 58.39423 60.08711 66.21973 72.45013 76.81724 69.66483 57.52411 45.95256 46.1983 45.9448 45.76119 45.45308 44.69025 43.58203 42.15104 41.70024 41.70024 42.21793 40.62516 41.9018 42.35589 40.62516 40.62516 78.29293 77.83123 77.39249 76.18162 68.44323 68.7813 63.74245 49.30658 42.535 40.62516 40.62516 40.62516 43.15287 62.43112 76.30346 83.40832 91.37357 96.66564 98.58047 106.8795 126.0029 87.48483 79.48883 69.2815 65.28536 54.44541 52.18755 51.31266 71.23907 64.37435 55.20895 47.34134 50.16143 53.68303 55.29115 45.92424 40.62516 40.62516 40.62516 40.62516 40.62516 40.62516 57.95453 61.53037 51.91825 61.31005 63.00663 63.68571 63.57056 62.37441 61.52409 58.50169 51.14975 50.24961 51.2482 47.73827 46.69574 32.88976 23.33648 20.81634 21.2758 28.87394 39.53638 40.03922 29.89246 27.24604 27.3799 27.51353 15.00064 15.02411 15.03104 15.03219 18.58995 25.27237 25.5547 26.79338 24.65732 24.06529 21.20813 21.43668 20.35218 19.09487 14.69571 14.64946 19.73663 27.56648 33.22408 19.47046 26.80586 28.20207 29.27105 30.29988 43.9473 44.44449 46.69764 37.8964 37.15099 49.07325 49.55323 51.31004 51.306 49.48061 48.21287 40.18232 44.28318 40.18232 40.18232 41.17756 53.06876
443.7666 443.3336 435.9506 432.4363 432.0511 432.0511 432.0511 433.2125 447.5392 455.2423 432.3179 432.0511 453.1558 479.6732 501.3956 517.2599 513.4936 494.3907 491.0925 492.409 473.4887 466.9989 453.6185 445.2615 437.3586 443.7485 438.8702 436.8412 415.4933 416.462 411.1779 413.341 416.2071 422.9359 419.4636 389.9763 360.3022 354.5988 370.5739 403.7127 392.8849 411.9586 419.6487 421.9134 413.619 431.335 431.335 436.3434 438.2162 441.1395 442.7129 437.7249 431.335 431.335 431.335 431.335 431.335 433.3854 444.7261 447.5869 447.4308 450.4801 451.7819 452.4114 455.556 458.4889 462.3478 461.7073 463.244 464.035 465.5863 473.0334 475.4665 474.2109 472.6418 467.4786 461.1708 458.5642 454.7226 451.1986 444.3459 436.3216 426.8941 415.6625 411.3428 413.5072 412.3728 396.4908 380.8829 380.8829 381.7859 396.2455 411.3222 420.4635 427.3105 430.5114 431.0777 425.5752 420.8999 420.6167 419.0553 407.7138 382.9075 361.4022 374.3758 380.4361 382.6721 378.6054 373.3422 383.6866 377.5965 372.6777 361.5475 341.787 323.5574 307.0652 292.7559 292.7559 292.7559 292.7559 292.7559 292.7559 292.7559 292.7559 292.7559 292.7559 292.7559 292.7559 292.7559 292.7559 292.7559 292.7559 292.7559 292.7559 292.7559 292.7559 292.7559 332.9939 363.3509 281.452 248.9765 260.8914 304.5419 327.5659 332.948 343.4061 329.4684 283.9665 262.6206 248.0791 239.1134 258.6957 276.1051 278.9184 283.9023 292.0205 291.2584 276.5952 252.0392 203.4558 143.9183 163.0052 197.2711 266.8629 276.8081 245.8185 198.6941 188.0842 178.4341 163.8613 148.5252 146.4154 138.1391 133.173 133.2137 144.3864 152.7782 153.3607 119.5514 104.8148 101.3822 93.64829 94.92233 79.11575 73.88012 74.69807 66.70531 63.7313 61.58789 68.2188 86.17113 93.35358 95.44222 101.1152 103.9255 102.2208 100.4992 83.90471 79.25841 79.20714 78.95866 67.23329 60.06371 57.24876 60.39429 61.08657 75.1982 75.65175 75.09934 73.51654 71.17559 45.30376 45.50436 45.528 45.26513 44.62852 44.0923 43.36817 42.11378 41.70024 41.70024 41.70024 44.74401 40.62516 40.62516 43.008 69.6111 77.4409 76.77712 76.505 75.90614 71.92429 69.42928 57.13001 54.97495 44.9861 40.62516 40.62516 40.62516 50.03424 63.48712 78.53572 89.32879 96.81958 111.3891 112.4272 132.7881 136.3228 79.75642 77.74042 72.78555 66.62115 60.74392 53.18552 54.6961 63.03471 62.47102 49.86986 51.33924 58.83604 63.5475 54.93895 49.11885 44.67302 40.62516 40.62516 40.62516 40.62516 40.62516 40.62516 42.83129 46.47131 60.81746 62.45798 63.40318 63.59269 61.77146 60.7573 55.20264 50.39255 48.79832 48.60122 46.61943 44.92793 41.84498 38.03856 31.01848 31.7183 40.91655 40.14973 38.0453 27.09978 27.22213 27.21 28.29454 28.88267 28.73782 27.24785 24.60571 25.16628 25.6502 25.7219 26.09999 24.10531 22.20987 20.99097 21.272 19.5938 17.14497 14.64946 14.64946 37.2966 40.72717 39.5155 47.73812 31.20093 49.73921 31.27237 47.99226 49.24932 49.60389 38.17167 51.10617 50.0101 37.44073 47.66481 51.42375 51.44197 53.32263 43.05054 54.13031 40.18232 47.939 40.18232 40.18232 50.38823
431.8004 436.6847 437.7102 437.5928 432.0511 432.0511 432.0511 433.7173 454.9759 460.5952 432.0511 432.0511 454.6872 486.4778 518.0742 525.0651 509.7614 498.1536 495.9357 486.9514 469.1339 467.9338 461.5896 451.816 444.9354 436.0054 436.0054 428.352 415.7593 412.4521 414.1606 408.8803 410.4882 425.3832 448.3264 411.4044 368.4453 354.5988 358.187 374.9866 386.3511 436.11 439.5586 442.5737 442.1961 431.335 431.7689 438.782 431.5624 440.8413 437.0927 441.7744 431.7827 431.335 431.335 431.335 431.335 431.335 438.8682 442.0363 443.636 447.0386 450.5378 451.0109 449.666 452.0311 457.4879 457.989 463.628 465.7943 467.3013 471.5548 473.9377 476.8227 473.9431 464.2543 464.7376 463.442 461.6213 453.3548 444.108 437.2419 433.4632 425.1748 410.175 407.5238 413.6964 404.5564 382.8406 380.8829 382.6021 394.365 414.8741 422.4021 427.8849 430.4095 434.3228 433.2071 426.2634 414.9228 408.7488 399.4634 383.6171 359.7467 359.2263 365.904 373.1042 362.5726 360.0689 365.7767 377.8963 370.3175 358.768 338.5747 326.2181 307.3374 294.3918 292.7559 292.7559 294.179 292.7559 292.7559 292.7559 292.7559 292.7559 292.7559 292.7559 292.7559 292.7559 292.7559 292.7559 292.7559 292.7559 299.3442 292.7559 292.7559 292.7559 301.6511 327.3655 248.9765 271.6171 247.0953 286.4617 303.2257 328.8283 329.5067 292.6806 255.0422 243.5038 231.1264 195.1595 244.0376 276.9952 281.8745 292.1204 303.3216 296.8862 281.8597 258.2479 208.295 143.9183 192.666 208.3928 251.4572 256.3423 243.4195 206.9116 182.379 162.4866 161.4357 151.7208 141.8481 141.314 138.832 137.0067 178.3922 168.1935 158.4384 115.2673 111.9952 102.0542 93.64829 102.6096 89.95049 80.86433 76.15724 61.58789 61.58789 62.40667 71.89766 87.8143 94.94222 97.34734 99.31668 101.6669 104.9777 103.8958 97.9504 86.84507 81.10257 80.12859 77.90138 64.15124 57.24876 73.09907 67.39503 68.99197 71.10233 73.90844 72.88922 73.09141 68.49108 45.3009 45.02777 44.76796 44.4051 44.11705 42.99035 43.13323 41.70024 44.92989 68.0882 55.40653 41.86215 44.7237 77.74226 77.81699 76.24765 75.15842 73.89562 73.20865 71.711 72.43374 71.25179 64.18521 57.09003 44.8011 40.62516 40.62516 57.54841 69.44671 79.94481 92.92336 107.0448 120.1728 130.1658 141.4315 129.6969 78.5965 74.70306 75.22478 65.81243 67.7679 60.73962 53.18552 58.13022 63.90993 52.2212 61.3931 64.72462 63.72617 61.22642 52.68429 45.59306 42.70703 50.43343 40.62516 40.62516 40.62516 40.62516 60.97414 55.52015 61.26725 62.48951 62.88213 62.5839 61.80678 60.96775 53.83707 52.09583 48.53063 46.93162 46.08943 44.48487 43.61938 42.73712 40.83762 40.57008 39.87757 37.67347 32.14864 27.05393 26.99915 27.47673 28.28396 28.33196 27.79515 26.81719 27.16347 26.31143 25.93986 25.38201 24.79145 24.16001 23.19607 21.69927 20.99097 17.5189 15.70732 14.64946 14.64946 40.46273 46.85911 49.11562 51.37089 52.09191 52.88535 53.21835 52.40777 51.60056 52.00178 51.6482 52.59317 52.93697 44.24059 51.32769 51.30285 52.83659 52.63648 53.26798 52.86226 50.48391 61.08607 49.06113 43.1734 53.70901
431.728 434.4456 435.0355 435.9868 438.4833 432.0511 432.0511 432.0511 450.3807 453.4828 432.0511 432.0511 447.5983 483.187 508.0689 511.0777 499.8377 497.7683 506.0448 490.4839 469.0238 464.364 461.7739 454.0179 444.0181 443.397 439.9206 428.0915 412.7923 393.4167 408.2136 408.4318 395.0524 412.2097 430.5163 407.5017 361.6288 354.5988 356.9773 365.4618 397.8707 436.2089 452.3394 457.7581 457.6808 442.4223 431.335 436.3524 431.335 439.7761 434.2236 443.5389 433.0805 431.335 431.335 431.335 431.335 431.335 438.9079 440.9961 442.6071 444.0536 449.1877 450.4886 449.835 449.5212 452.1072 455.3744 458.5061 465.7125 470.1617 471.388 477.1635 482.6111 480.2203 475.4933 470.2139 469.2977 465.5495 457.3827 450.3511 450.5465 444.0501 429.1902 414.1132 404.286 403.0954 405.232 383.3008 380.8829 384.9379 405.0497 416.7224 422.4265 428.315 434.3883 440.2286 439.6905 429.959 421.4082 413.3193 398.0211 379.4291 365.7052 346.2669 346.6997 363.0523 350.4173 349.5202 359.2894 358.9117 362.34 349.5582 327.0007 308.9276 300.1522 318.0105 308.7278 300.7265 296.4791 292.7559 297.1835 311.3938 293.6589 295.7102 304.5977 302.7747 311.5267 309.9967 293.5674 292.7559 292.7559 294.4646 310.6727 296.1248 292.7559 292.7559 293.5538 294.4317 250.853 274.3997 247.0953 267.8336 274.2851 280.3444 301.4525 268.6555 244.654 238.1319 211.5507 230.5058 183.3341 274.1355 281.6607 286.0844 294.7487 286.2802 274.5206 245.4096 193.8185 149.7206 216.9193 230.9711 242.0212 261.165 232.7217 207.9203 201.7828 179.326 153.8528 146.2207 147.3477 147.7537 140.769 137.0067 137.6735 170.0624 146.055 116.2105 107.202 103.819 96.64854 100.7081 93.86816 80.984 69.84209 61.58789 61.58789 69.04441 79.80241 93.42218 96.74175 97.30654 97.3349 97.96893 103.5246 104.4024 99.56099 95.03166 81.7769 80.68742 79.56638 77.72189 65.99532 58.60932 73.01478 74.77532 74.74085 71.10233 72.33342 72.88109 74.13509 62.15374 45.23228 44.76744 44.70512 45.1073 45.1865 43.79081 56.92599 54.9766 69.96171 71.03889 70.54533 73.23864 77.04826 76.24014 70.62496 73.82194 71.85547 71.85547 73.63773 76.77937 70.44318 64.99525 62.20479 49.89262 40.62516 40.62516 48.34954 57.82986 79.05007 95.36689 107.4253 123.5728 134.2798 146.0756 131.8083 91.19172 78.76649 72.85737 66.01368 70.64994 61.77835 55.8937 58.7126 65.2402 57.99059 56.75735 62.87358 63.9828 63.09334 56.83693 47.99829 42.70703 48.58833 45.54901 40.62516 40.62516 40.62516 62.41709 62.687 61.12556 62.67964 62.57058 61.96411 61.37711 61.0574 54.64999 52.29602 49.56787 47.93386 42.99773 42.99773 42.96027 42.16751 40.99065 40.20219 39.65839 38.81466 36.79786 26.81921 26.99035 27.69996 28.10652 27.83953 27.31782 26.82521 27.12832 26.28607 26.17222 25.15176 24.15096 24.21389 23.44018 21.74368 17.36673 16.76445 15.13244 14.64946 14.7792 40.66936 49.00415 49.7356 50.44832 51.7719 52.36347 52.64085 52.20098 52.06176 52.22228 52.11996 51.92189 51.13086 44.24059 51.87213 53.00665 54.16801 52.86954 54.92776 58.31232 58.99817 56.929 45.01962 52.48747 45.19251
417.4106 437.2989 436.6321 434.3035 436.9218 439.8371 432.0511 440.1846 457.6309 455.3572 446.2186 432.0511 439.4451 465.2697 479.8296 485.3052 488.7744 481.4644 512.0848 494.5536 471.68 465.8483 462.1097 461.951 462.6962 464.5229 463.8244 463.6148 455.9583 413.8412 386.1509 391.2223 396.2646 392.1585 400.4477 405.8873 371.6162 354.5988 356.7161 383.7717 417.653 443.4743 457.62 469.1027 474.4695 443.9318 431.335 431.335 431.335 431.335 431.335 440.9926 431.5927 431.335 431.335 431.335 431.335 431.335 437.9604 439.4718 441.166 442.6953 443.8109 449.0409 450.47 450.1064 449.3355 449.6626 452.4694 459.8522 469.3031 471.0114 473.8241 487.7575 492.4186 496.9433 491.7673 476.116 463.2604 456.6734 450.5417 455.8748 459.3411 433.0255 422.6072 417.1207 406.1006 389.0626 383.7632 380.8829 386.83 402.5529 415.993 422.8091 428.8208 435.1779 446.319 445.5593 438.8611 425.0047 417.3873 402.5829 385.6248 365.0659 352.405 331.4596 340.7963 339.8924 337.502 347.5844 339.6861 328.6105 329.0335 318.8895 305.3221 332.0164 339.0503 325.3062 305.5464 299.5909 292.7559 303.1062 319.4341 318.8968 319.7589 325.9428 340.4804 332.5181 342.6162 300.3029 292.7559 292.7559 303.0104 313.6971 313.9973 292.7559 292.7559 292.7559 292.7559 319.5356 293.1211 247.0953 250.9208 246.4606 246.4606 240.4422 240.4422 244.8736 211.5507 239.0656 238.491 183.3341 226.6828 266.0193 273.4997 278.4857 284.7803 246.0365 197.4507 149.7206 193.8356 255.1832 246.8119 238.2617 212.7426 209.9574 195.1327 189.3214 165.8099 162.0757 169.7464 177.3561 199.7918 184.0924 169.9435 137.0067 150.1929 133.6517 111.1946 96.64854 96.64854 97.94707 94.7368 103.1766 90.00639 71.21059 61.58789 63.20151 76.23895 84.47912 96.06609 100.8798 98.36668 98.28905 96.43119 89.67789 94.31245 86.81081 86.36884 92.89615 82.8541 80.66461 78.59858 70.50671 61.2424 63.24392 70.66232 76.02277 74.46567 72.23379 73.67673 75.63916 74.70818 45.5685 44.70512 45.20749 74.79936 76.24162 74.25031 69.15041 69.94583 55.38792 69.38052 67.90427 72.41789 71.95616 70.51939 68.88837 69.9277 74.16625 75.79585 76.28053 76.22307 73.01814 65.2793 58.12039 52.43434 44.39815 40.62516 50.28988 65.76159 81.17454 98.22994 110.5927 115.4281 129.4874 154.8846 138.9705 103.32 80.3137 70.93992 68.30183 72.92445 64.49355 58.01578 62.33089 70.88422 66.25491 64.98882 62.88329 63.25933 63.14818 61.26826 61.33522 46.49032 55.4092 58.09201 50.6328 40.62516 51.9628 60.91433 61.93148 61.94182 62.57372 62.30093 61.71935 60.78299 57.95187 51.57587 50.48142 49.28806 48.36588 45.12507 43.54902 42.66668 40.17035 39.7598 39.77192 38.58158 37.03944 33.7381 26.50554 26.53215 27.44485 27.69865 27.32486 27.11658 26.65701 26.68037 26.52266 26.28283 25.4895 23.79592 24.36283 21.22088 17.24098 16.27862 15.54026 14.64946 14.64946 15.7908 36.57063 44.65201 47.73539 48.29613 50.27868 51.49271 51.71935 51.61641 51.67466 51.82169 51.60162 51.46386 51.57295 54.2669 52.53077 53.13747 54.16723 53.56392 53.85439 54.48567 56.16937 54.57136 45.52285 63.70267 51.12439
